1.23746800 0.49139801 3.64119697 0.000000 0.000000
1.04168797 0.46332499 3.98347712 0.000000 0.000000
1.19555104 0.40896100 3.60697007 0.000000 0.000000
1.18431401 0.40849900 3.60499406 0.000000 0.000000
1.05048501 0.42051801 3.91522098 0.000000 0.000000
1.21637702 0.43105099 3.61805892 0.000000 0.000000
1.04116499 0.40829900 3.91821504 0.000000 0.000000
1.04646599 0.42033300 3.92101192 0.000000 0.000000
1.22615802 0.50104803 3.59734106 0.000000 0.000000
1.06382501 0.44521999 4.00191402 0.000000 0.000000
1.07945597 0.46859100 4.02401400 0.000000 0.000000
1.21626902 0.48467001 3.56894994 0.000000 0.000000
1.08585703 0.42935899 3.99911404 0.000000 0.000000
1.07778895 0.42195901 3.99099994 0.000000 0.000000
1.19777703 0.37203500 3.54392099 0.000000 0.000000
1.18119204 0.35861000 3.54711294 0.000000 0.000000
1.11156297 0.39550400 3.89600992 0.000000 0.000000
1.11638904 0.38300100 3.89040709 0.000000 0.000000
1.21302295 0.39115599 3.58036208 0.000000 0.000000
1.18869305 0.36905199 3.56853390 0.000000 0.000000
1.09406602 0.38577899 3.87821698 0.000000 0.000000
1.09461606 0.42530799 3.90643692 0.000000 0.000000
1.19013500 0.46373400 3.60719299 0.000000 0.000000
1.17179000 0.44845101 3.60234308 0.000000 0.000000
1.04392505 0.42568001 3.96574593 0.000000 0.000000
1.03768694 0.39796701 3.94318104 0.000000 0.000000
1.15859199 0.44664201 3.57723308 0.000000 0.000000
1.04643500 0.36739001 3.94118500 0.000000 0.000000
1.05220103 0.38866699 3.95890498 0.000000 0.000000
1.23299396 0.42132300 3.53585696 0.000000 0.000000
1.13110304 0.39856699 3.92294502 0.000000 0.000000
1.25696397 0.43617401 3.54674006 0.000000 0.000000
1.13644600 0.44079199 3.95512700 0.000000 0.000000
1.24605799 0.46183401 3.54858899 0.000000 0.000000
1.25234199 0.47415900 3.55320406 0.000000 0.000000
1.12028503 0.42828000 3.97774696 0.000000 0.000000
1.26141405 0.45785800 3.54957294 0.000000 0.000000
1.23214304 0.43400800 3.53712606 0.000000 0.000000
1.12925601 0.41325399 3.94905806 0.000000 0.000000
1.25417304 0.41875800 3.55741096 0.000000 0.000000
1.24776196 0.41411999 3.55467010 0.000000 0.000000
1.12417901 0.46939299 3.94245791 0.000000 0.000000
1.24189997 0.41229001 3.54271412 0.000000 0.000000
1.12940300 0.40066499 3.91676402 0.000000 0.000000
1.20357597 0.39038199 3.58639598 0.000000 0.000000
1.06908095 0.38480100 3.87490511 0.000000 0.000000
1.08213603 0.39909601 3.88303494 0.000000 0.000000
1.21308398 0.41544801 3.60869098 0.000000 0.000000
1.22051299 0.40507501 3.59404111 0.000000 0.000000
1.06955194 0.43514600 3.91332293 0.000000 0.000000
1.06841195 0.43858701 3.91621494 0.000000 0.000000
1.01851499 0.55431598 4.06758499 0.000000 0.000000
1.27316904 0.55272597 3.71821308 0.000000 0.000000
1.00117302 0.57815301 4.04392815 0.000000 0.000000
-0.53307998 -0.20138200 3.59900594 0.000000 0.000000
-0.53992498 -0.20958000 3.61471796 0.000000 0.000000
-0.54867500 -0.19608900 3.62642407 0.000000 0.000000
-0.54830998 -0.16749699 3.63614511 0.000000 0.000000
-0.55072999 -0.18414199 3.63255000 0.000000 0.000000
-0.13318799 0.48137999 4.15404987 0.000000 0.000000
-0.00920400 0.47566399 4.10468006 0.000000 0.000000
-0.13074701 0.49523300 4.16484404 0.000000 0.000000
-0.00220800 0.47805500 4.11070108 0.000000 0.000000
-0.10663400 0.50203401 4.16798878 0.000000 0.000000
-0.11258200 0.49469900 4.15917015 0.000000 0.000000
-0.10634600 0.46475500 4.12978601 0.000000 0.000000
-0.02599800 0.59072697 4.18676519 0.000000 0.000000
-0.02482500 0.59760898 4.19290495 0.000000 0.000000
-0.11946100 0.60353702 4.24857521 0.000000 0.000000
-0.01546500 0.58930397 4.18872690 0.000000 0.000000
-0.42071199 -0.08061100 3.58438611 0.000000 0.000000
-0.49829501 -0.06047800 3.70729303 0.000000 0.000000
-0.47163901 -0.06068500 3.71030688 0.000000 0.000000
-0.49730101 -0.08429500 3.69390988 0.000000 0.000000
-0.49219501 -0.10440700 3.68440890 0.000000 0.000000
-0.50131798 -0.10278200 3.68594694 0.000000 0.000000
-0.47311699 -0.13923401 3.61251497 0.000000 0.000000
-0.50233400 -0.13676199 3.66446090 0.000000 0.000000
-0.47384700 -0.15104300 3.62330794 0.000000 0.000000
-0.53243297 -0.15761000 3.65314388 0.000000 0.000000
-0.53843403 0.17709801 3.48052192 0.000000 0.000000
-0.49623901 0.16892500 3.34570289 0.000000 0.000000
-0.54369700 0.19523799 3.46369791 0.000000 0.000000
-0.56386799 0.16411801 3.32062507 0.000000 0.000000
-0.39237499 0.10859800 3.53696394 0.000000 0.000000
-0.39126000 0.12521601 3.54555297 0.000000 0.000000
-0.47087899 0.13348700 3.71649909 0.000000 0.000000
-0.40179801 0.06556000 3.76374006 0.000000 0.000000
-0.40943399 0.07324000 3.75746202 0.000000 0.000000
-0.33441100 0.09346400 3.59493995 0.000000 0.000000
-0.39047599 0.09053900 3.76107788 0.000000 0.000000
-0.37844101 0.16104400 3.69177699 0.000000 0.000000
-0.35839900 0.13920701 3.61302304 0.000000 0.000000
-0.35027000 0.14422400 3.62323308 0.000000 0.000000
-0.39175400 0.06855200 3.55616093 0.000000 0.000000
-0.46354300 0.05834800 3.74138403 0.000000 0.000000
-0.38567701 0.08895900 3.56111908 0.000000 0.000000
-0.45731801 0.04157900 3.73933911 0.000000 0.000000
-0.35663500 0.15736400 3.63341999 0.000000 0.000000
-0.41156101 0.11439100 3.73448801 0.000000 0.000000
-0.34821799 0.12260400 3.60518909 0.000000 0.000000
-0.37498000 0.10809500 3.57242990 0.000000 0.000000
-0.43484899 0.08860800 3.74439597 0.000000 0.000000
-0.43152401 0.10381600 3.74200296 0.000000 0.000000
-0.42589900 0.00196000 3.54740310 0.000000 0.000000
-0.49967799 0.02138100 3.72005796 0.000000 0.000000
-0.32642999 0.18847600 3.72445798 0.000000 0.000000
-0.30953401 0.17945901 3.65158391 0.000000 0.000000
-0.34090799 0.17556800 3.72134209 0.000000 0.000000
-0.30248201 0.14026400 3.62340307 0.000000 0.000000
-0.35833400 0.13864800 3.74597311 0.000000 0.000000
-0.37129799 0.13645700 3.73583198 0.000000 0.000000
-0.35223201 0.06830600 3.58414412 0.000000 0.000000
-0.41879600 0.03565800 3.75762796 0.000000 0.000000
-0.41941100 0.04745800 3.75684690 0.000000 0.000000
-0.37043801 0.06915200 3.57913804 0.000000 0.000000
-0.43489099 0.04488700 3.74876094 0.000000 0.000000
-0.44021699 0.02666500 3.74755692 0.000000 0.000000
-0.36943001 0.12316400 3.74993801 0.000000 0.000000
-0.33092499 0.11912200 3.60777307 0.000000 0.000000
-0.37868300 0.10706100 3.75448895 0.000000 0.000000
-0.30630001 0.17651300 3.64978004 0.000000 0.000000
-0.35484299 0.16173600 3.72319388 0.000000 0.000000
-0.32172000 0.15897700 3.63731003 0.000000 0.000000
-0.31778699 0.09581200 3.59902596 0.000000 0.000000
-0.26902100 0.07940100 3.60028911 0.000000 0.000000
-0.30078000 0.09618000 3.60201311 0.000000 0.000000
-0.33198601 0.04960600 3.79457808 0.000000 0.000000
-0.32360500 0.02805900 3.80255198 0.000000 0.000000
-0.36688301 0.06134800 3.77952790 0.000000 0.000000
-0.27534401 0.11064700 3.61867094 0.000000 0.000000
-0.26461500 0.08883300 3.60759997 0.000000 0.000000
-0.24748699 0.09914800 3.62025094 0.000000 0.000000
-0.29835501 0.05183300 3.81134701 0.000000 0.000000
-0.28548399 0.04984000 3.81824207 0.000000 0.000000
-0.33896199 0.07785000 3.78809094 0.000000 0.000000
-0.41903600 -0.06764200 3.57475901 0.000000 0.000000
-0.41987699 -0.05691800 3.57158589 0.000000 0.000000
-0.50240600 -0.03964300 3.71046090 0.000000 0.000000
-0.49054599 -0.03151200 3.71620798 0.000000 0.000000
-0.49977300 -0.03034300 3.71296906 0.000000 0.000000
-0.42479199 -0.01668000 3.55508399 0.000000 0.000000
-0.50155699 -0.01136500 3.71599197 0.000000 0.000000
0.86472201 0.34730801 3.61473894 0.000000 0.000000
0.86344600 0.34373000 3.62037396 0.000000 0.000000
0.81370503 0.16278701 3.87240791 0.000000 0.000000
0.86680597 0.35121399 3.60786009 0.000000 0.000000
0.86755300 0.35760200 3.59644294 0.000000 0.000000
0.84471202 0.18940599 3.86547899 0.000000 0.000000
0.88890302 0.30403501 3.64501309 0.000000 0.000000
0.89668798 0.32115000 3.64053607 0.000000 0.000000
0.88213998 0.29963601 3.64866400 0.000000 0.000000
0.86510003 0.29844901 3.65763688 0.000000 0.000000
0.83728099 0.20341501 3.81789708 0.000000 0.000000
0.84865701 0.20737401 3.82594895 0.000000 0.000000
0.86808997 0.28703400 3.65804291 0.000000 0.000000
0.89179301 0.28566900 3.64487195 0.000000 0.000000
0.89633000 0.26027501 3.64924097 0.000000 0.000000
0.86686403 0.20429701 3.78780293 0.000000 0.000000
0.83028501 0.20043901 3.80879092 0.000000 0.000000
0.98183298 0.23973100 3.56422997 0.000000 0.000000
0.96920800 0.18027000 3.76254606 0.000000 0.000000
0.97013402 0.16164599 3.75006199 0.000000 0.000000
0.94097698 0.21925800 3.60373211 0.000000 0.000000
0.95014900 0.16833501 3.74365997 0.000000 0.000000
0.94476700 0.18051200 3.74659801 0.000000 0.000000
0.95890999 0.17436600 3.74863696 0.000000 0.000000
0.83369201 0.32112399 3.64867592 0.000000 0.000000
0.84220099 0.32215801 3.64620900 0.000000 0.000000
0.82856899 0.18963601 3.85460806 0.000000 0.000000
0.82027400 0.19126000 3.83230090 0.000000 0.000000
0.86390197 0.31434801 3.65644312 0.000000 0.000000
0.88116997 0.33479899 3.63291597 0.000000 0.000000
0.85954201 0.21051399 3.83784604 0.000000 0.000000
0.85307300 0.35554701 3.54191208 0.000000 0.000000
0.87809402 0.35505801 3.53294110 0.000000 0.000000
0.92270601 0.11648000 3.88294506 0.000000 0.000000
0.91801900 0.12847100 3.88841200 0.000000 0.000000
0.86839199 0.11514600 3.89226890 0.000000 0.000000
0.92615300 0.33523700 3.49787807 0.000000 0.000000
0.92060798 0.33516401 3.49843788 0.000000 0.000000
0.95123702 0.11771800 3.87396502 0.000000 0.000000
0.93139499 0.13377000 3.88600397 0.000000 0.000000
0.93866700 0.14631900 3.88761401 0.000000 0.000000
0.99021202 0.10622900 3.82444811 0.000000 0.000000
0.99678802 0.11114200 3.81336498 0.000000 0.000000
0.99201602 0.08851300 3.79597306 0.000000 0.000000
1.00463200 0.11051300 3.79222012 0.000000 0.000000
0.94295001 0.25647500 3.61387992 0.000000 0.000000
0.94330901 0.25892901 3.61399508 0.000000 0.000000
0.90641201 0.25261000 3.64219189 0.000000 0.000000
0.90087903 0.19940101 3.76594210 0.000000 0.000000
0.89551902 0.20796800 3.77572203 0.000000 0.000000
0.94580698 0.23308600 3.60560894 0.000000 0.000000
0.90269899 0.25170699 3.64472103 0.000000 0.000000
0.90782201 0.18728200 3.75518990 0.000000 0.000000
0.94642401 0.19924600 3.75423193 0.000000 0.000000
-0.16085599 -0.08664900 3.64085507 0.000000 0.000000
-0.18066899 -0.12100900 3.72239995 0.000000 0.000000
-0.18551400 -0.11821100 3.72833204 0.000000 0.000000
-0.19501500 -0.12245400 3.64148498 0.000000 0.000000
-0.18511300 -0.13118500 3.70164490 0.000000 0.000000
-0.17673600 -0.13863000 3.69216108 0.000000 0.000000
-0.11647100 -0.14838900 3.69999695 0.000000 0.000000
-0.52000499 0.16383199 3.30616593 0.000000 0.000000
-0.41138300 0.02645300 3.54141998 0.000000 0.000000
-0.49491900 0.02257700 3.72197700 0.000000 0.000000
-0.39839000 0.05517500 3.54926896 0.000000 0.000000
-0.47725701 0.05079700 3.73601389 0.000000 0.000000
-0.39104000 0.03324100 3.56642795 0.000000 0.000000
-0.47994101 0.00228900 3.72564697 0.000000 0.000000
-0.46977600 0.00631200 3.72996712 0.000000 0.000000
-0.38461000 0.02198100 3.57187009 0.000000 0.000000
-0.45612699 -0.01431000 3.73358989 0.000000 0.000000
-0.45389599 0.02450100 3.74044609 0.000000 0.000000
-0.52333403 -0.03436800 3.42071104 0.000000 0.000000
-0.52094102 0.02709000 3.38195109 0.000000 0.000000
-0.61570901 0.08873100 3.40968108 0.000000 0.000000
-0.01643100 0.62171900 4.12190580 0.000000 0.000000
-0.01293500 0.62178600 4.12046099 0.000000 0.000000
-0.13335200 0.49401799 4.24776220 0.000000 0.000000
-0.11598700 0.52039599 4.27538586 0.000000 0.000000
-0.37022501 -0.02356500 3.58476996 0.000000 0.000000
-0.36086300 -0.01883400 3.58691692 0.000000 0.000000
-0.35995701 -0.04098600 3.59033704 0.000000 0.000000
-0.42248699 -0.00742500 3.74914789 0.000000 0.000000
-0.43641999 -0.01234100 3.74296403 0.000000 0.000000
-0.43445301 -0.01276300 3.74341989 0.000000 0.000000
-0.38832599 -0.06472900 3.73839593 0.000000 0.000000
-0.43782499 -0.04520200 3.73024702 0.000000 0.000000
-0.32528999 0.01718900 3.58432102 0.000000 0.000000
-0.31070101 0.00200900 3.58879495 0.000000 0.000000
-0.33723399 -0.02739100 3.59240508 0.000000 0.000000
-0.32187799 -0.00712000 3.58964491 0.000000 0.000000
-0.37234601 -0.04601000 3.75340009 0.000000 0.000000
-0.37053901 -0.03642500 3.75841999 0.000000 0.000000
-0.39167801 -0.04839200 3.74377704 0.000000 0.000000
-0.41203901 0.00173700 3.75680804 0.000000 0.000000
-0.34804699 -0.02337600 3.77414107 0.000000 0.000000
0.80914497 0.32817400 3.64070702 0.000000 0.000000
0.81139201 0.30774900 3.65656495 0.000000 0.000000
0.77737701 0.17103900 3.82977009 0.000000 0.000000
0.80986702 0.18706299 3.82854199 0.000000 0.000000
0.79675901 0.26835400 3.67778707 0.000000 0.000000
0.78776699 0.19186600 3.77359390 0.000000 0.000000
0.82065499 0.19736201 3.81027293 0.000000 0.000000
0.80556601 0.18884601 3.81468511 0.000000 0.000000
1.07424796 0.36901399 3.58438802 0.000000 0.000000
0.99241298 0.29402301 3.84601498 0.000000 0.000000
0.99224699 0.29288599 3.85307407 0.000000 0.000000
1.08284700 0.37777701 3.58397794 0.000000 0.000000
1.00587201 0.31578201 3.85833597 0.000000 0.000000
0.06242900 0.45640299 4.04497385 0.000000 0.000000
0.05979900 0.44145101 4.04647923 0.000000 0.000000
-0.05895600 0.42922300 4.13585091 0.000000 0.000000
0.03402500 0.52128297 4.10755205 0.000000 0.000000
-0.07540000 0.51319402 4.21013117 0.000000 0.000000
-0.08494700 0.52845699 4.20931721 0.000000 0.000000
0.11571100 0.37971601 3.94736004 0.000000 0.000000
0.00386600 0.33005399 4.08185005 0.000000 0.000000
0.01587300 0.31409201 4.08364010 0.000000 0.000000
0.10661500 0.38829300 3.96290398 0.000000 0.000000
-0.02447800 0.36334300 4.10685492 0.000000 0.000000
0.08174000 0.24816699 3.99821496 0.000000 0.000000
0.77029198 0.17979901 3.78798294 0.000000 0.000000
-0.10191800 0.56972098 4.22607803 0.000000 0.000000
0.00242300 0.57192099 4.17861223 0.000000 0.000000
-0.01108300 0.58912998 4.19472885 0.000000 0.000000
-0.29921401 0.15564300 3.63935709 0.000000 0.000000
-0.21781000 0.13930000 3.68491411 0.000000 0.000000
-0.22622100 0.14407399 3.68175101 0.000000 0.000000
-0.28365800 0.10427300 3.79713798 0.000000 0.000000
-0.29177701 0.09853800 3.79434800 0.000000 0.000000
-0.28867501 0.09736000 3.79649401 0.000000 0.000000
-0.29523301 0.11787300 3.78618002 0.000000 0.000000
-0.25223801 0.13138400 3.65372610 0.000000 0.000000
-0.29612300 0.14702199 3.63284206 0.000000 0.000000
-0.31869301 0.10855700 3.78259897 0.000000 0.000000
-0.31360000 0.11217700 3.78019190 0.000000 0.000000
-0.33105999 0.12631901 3.76712704 0.000000 0.000000
-0.39251599 -0.09342200 3.61161399 0.000000 0.000000
-0.37555200 -0.08349700 3.60961294 0.000000 0.000000
-0.37164199 -0.07153400 3.60324407 0.000000 0.000000
-0.38133499 -0.08323800 3.60807109 0.000000 0.000000
-0.44294900 -0.10482400 3.69487691 0.000000 0.000000
-0.39715999 -0.08062700 3.72662711 0.000000 0.000000
-0.43585899 -0.09717400 3.70318699 0.000000 0.000000
-0.43129799 -0.11298000 3.69050908 0.000000 0.000000
-0.41392499 -0.06618400 3.58969307 0.000000 0.000000
-0.36635801 -0.05410100 3.59380698 0.000000 0.000000
-0.41532099 -0.08367900 3.60015798 0.000000 0.000000
-0.46419600 -0.07440400 3.70589089 0.000000 0.000000
-0.43705299 -0.09017600 3.70774698 0.000000 0.000000
-0.46465501 -0.09624400 3.69432998 0.000000 0.000000
-0.44271001 -0.07863000 3.71166706 0.000000 0.000000
-0.44581401 -0.05627300 3.72217393 0.000000 0.000000
-0.45916301 -0.08739700 3.70098400 0.000000 0.000000
-0.50075299 -0.17453900 3.62306809 0.000000 0.000000
-0.51747203 -0.16512001 3.63976407 0.000000 0.000000
-0.45749301 -0.18004499 3.64113808 0.000000 0.000000
-0.46709299 -0.16472200 3.61864090 0.000000 0.000000
-0.44305599 -0.18071599 3.63535094 0.000000 0.000000
-0.42138299 -0.16786100 3.63197398 0.000000 0.000000
-0.44512799 -0.17480899 3.64934492 0.000000 0.000000
-0.47963899 -0.17194700 3.64464402 0.000000 0.000000
-0.30450699 0.07026100 3.59241104 0.000000 0.000000
-0.31350401 0.07352900 3.59146810 0.000000 0.000000
-0.33078399 0.06854000 3.58816910 0.000000 0.000000
-0.29541600 0.03310200 3.58889604 0.000000 0.000000
-0.36139700 0.01775800 3.77796698 0.000000 0.000000
-0.32642701 -0.01677200 3.78623509 0.000000 0.000000
-0.33549699 0.01856700 3.79289794 0.000000 0.000000
-0.34304500 -0.00873200 3.77951193 0.000000 0.000000
-0.30282000 0.03167800 3.58757710 0.000000 0.000000
-0.32282600 0.04760900 3.58664489 0.000000 0.000000
-0.32401600 0.04012900 3.58549809 0.000000 0.000000
-0.35444701 -0.00036900 3.77678895 0.000000 0.000000
-0.35249701 -0.00628500 3.77654791 0.000000 0.000000
-0.34965599 -0.01258500 3.77654290 0.000000 0.000000
-0.40862301 0.01298400 3.76088905 0.000000 0.000000
-0.27297100 0.21228100 3.71255708 0.000000 0.000000
-0.23218399 0.21522599 3.74549198 0.000000 0.000000
-0.28021199 0.21161801 3.71475601 0.000000 0.000000
-0.26738399 0.20655701 3.74547505 0.000000 0.000000
-0.26598400 0.20940000 3.70370102 0.000000 0.000000
-0.25415999 0.21250600 3.71452594 0.000000 0.000000
-0.29323900 0.20570700 3.71774292 0.000000 0.000000
-0.31060600 0.19746600 3.72701693 0.000000 0.000000
-0.25173000 0.12266100 3.63774800 0.000000 0.000000
-0.25804999 0.12291400 3.63216305 0.000000 0.000000
-0.29301101 0.13480701 3.62171793 0.000000 0.000000
-0.30823001 0.08925800 3.79647493 0.000000 0.000000
-0.27999899 0.06575200 3.81595397 0.000000 0.000000
-0.28984800 0.13269401 3.62139511 0.000000 0.000000
-0.30945399 0.07561200 3.80053711 0.000000 0.000000
-0.31585699 0.07035300 3.79999495 0.000000 0.000000
-0.35011500 0.08558900 3.78144598 0.000000 0.000000
-0.22143200 0.17490600 3.70760608 0.000000 0.000000
-0.27297699 0.17889100 3.66995311 0.000000 0.000000
-0.28414899 0.18280500 3.66460609 0.000000 0.000000
-0.28968301 0.15460400 3.77336502 0.000000 0.000000
-0.31174701 0.17114000 3.75356007 0.000000 0.000000
-0.27413201 0.14732499 3.78593707 0.000000 0.000000
-0.25216600 0.15478000 3.67000008 0.000000 0.000000
-0.25851300 0.15816200 3.66762900 0.000000 0.000000
-0.26895100 0.17023499 3.66725302 0.000000 0.000000
-0.28229600 0.12621900 3.78926706 0.000000 0.000000
-0.34205499 0.15128000 3.74802208 0.000000 0.000000
-0.31598800 0.15785600 3.75699306 0.000000 0.000000
-0.27309501 0.20038401 3.69009399 0.000000 0.000000
-0.25285101 0.19381601 3.69984198 0.000000 0.000000
-0.28266999 0.19680400 3.68104506 0.000000 0.000000
-0.24564800 0.15025499 3.80344701 0.000000 0.000000
-0.26277101 0.18355100 3.77597308 0.000000 0.000000
-0.30240700 0.19618700 3.73557901 0.000000 0.000000
-0.26838499 0.18724400 3.76956511 0.000000 0.000000
-0.24080500 0.18398200 3.70156407 0.000000 0.000000
-0.28516799 0.18554901 3.66651702 0.000000 0.000000
-0.32435599 0.18732700 3.72955894 0.000000 0.000000
-0.38856301 -0.12948801 3.62704706 0.000000 0.000000
-0.39504999 -0.14514799 3.62842011 0.000000 0.000000
-0.43033099 -0.11517300 3.61354089 0.000000 0.000000
-0.41967499 -0.12889700 3.68428993 0.000000 0.000000
-0.42914200 -0.11967500 3.68669105 0.000000 0.000000
-0.41417801 -0.13767400 3.68132710 0.000000 0.000000
-0.44327000 -0.12144200 3.61170697 0.000000 0.000000
-0.48283100 -0.14983700 3.60901809 0.000000 0.000000
-0.44686699 -0.13006300 3.61281300 0.000000 0.000000
-0.48586699 -0.14798599 3.60790992 0.000000 0.000000
-0.49271700 -0.15896800 3.65360403 0.000000 0.000000
-0.45235801 -0.14053100 3.67217803 0.000000 0.000000
-0.44181901 -0.14880300 3.67038298 0.000000 0.000000
-0.46063700 -0.15296200 3.66397595 0.000000 0.000000
-0.23399800 0.10189500 3.62688208 0.000000 0.000000
-0.19493499 0.09108200 3.63983297 0.000000 0.000000
-0.21591900 0.08022400 3.62374902 0.000000 0.000000
-0.26826701 0.01605700 3.82517290 0.000000 0.000000
-0.25468099 0.02268700 3.83117795 0.000000 0.000000
-0.25419500 0.02337400 3.83144093 0.000000 0.000000
-0.18186300 0.09882000 3.65132594 0.000000 0.000000
-0.19562601 0.10239800 3.64641309 0.000000 0.000000
-0.18616800 -0.02412500 3.85544705 0.000000 0.000000
-0.17520300 -0.02405700 3.86206293 0.000000 0.000000
-0.25535399 0.03435500 3.83269191 0.000000 0.000000
-0.30345401 -0.01966100 3.59541512 0.000000 0.000000
-0.29146799 -0.00479900 3.59347606 0.000000 0.000000
-0.27761501 -0.03843500 3.60521102 0.000000 0.000000
-0.26781499 -0.04283000 3.60817695 0.000000 0.000000
-0.32228401 -0.02343700 3.59307790 0.000000 0.000000
-0.31479499 -0.04916800 3.76721096 0.000000 0.000000
-0.35992000 -0.06167600 3.74937510 0.000000 0.000000
-0.33076200 -0.04050900 3.77020907 0.000000 0.000000
-0.27232799 -0.07343300 3.75835800 0.000000 0.000000
-0.33223501 -0.04549400 3.76637101 0.000000 0.000000
-0.33715600 -0.05163700 3.76102591 0.000000 0.000000
-0.22291601 0.01420500 3.60552907 0.000000 0.000000
-0.22010200 -0.01569100 3.61236596 0.000000 0.000000
-0.25133899 0.00769800 3.59959888 0.000000 0.000000
-0.26624000 0.01200100 3.59491205 0.000000 0.000000
-0.26844400 -0.05137200 3.78124690 0.000000 0.000000
-0.26928401 -0.04244300 3.78965807 0.000000 0.000000
-0.26071200 -0.04509800 3.79059100 0.000000 0.000000
-0.29119301 -0.04365400 3.77942991 0.000000 0.000000
-0.25920501 -0.04091700 3.79531503 0.000000 0.000000
-0.39437300 0.06798900 3.52983189 0.000000 0.000000
-0.49492601 0.07062000 3.72259808 0.000000 0.000000
-0.46597099 0.08200900 3.74524999 0.000000 0.000000
-0.46855900 0.09128100 3.73982906 0.000000 0.000000
-0.51478601 0.12473300 3.66367507 0.000000 0.000000
-0.40734500 0.06701800 3.50175691 0.000000 0.000000
-0.53525198 0.10764400 3.63657808 0.000000 0.000000
-0.52812397 0.10855200 3.65087700 0.000000 0.000000
-0.41911501 -0.01450500 3.51545095 0.000000 0.000000
-0.42285699 -0.03647900 3.52877498 0.000000 0.000000
-0.41271499 0.02041700 3.52562690 0.000000 0.000000
-0.51880699 0.03461600 3.70082211 0.000000 0.000000
-0.42577100 -0.02366600 3.47899508 0.000000 0.000000
-0.56460100 0.06105500 3.61000299 0.000000 0.000000
-0.43167999 -0.02320800 3.46347404 0.000000 0.000000
-0.56968600 0.03539600 3.61785102 0.000000 0.000000
-0.39786300 0.15748000 3.67183590 0.000000 0.000000
-0.42825300 0.16419099 3.61876392 0.000000 0.000000
-0.45268801 0.16965900 3.61561894 0.000000 0.000000
-0.42794400 0.14278200 3.70203710 0.000000 0.000000
-0.40836099 0.14218600 3.70536208 0.000000 0.000000
-0.40722099 0.15340801 3.54939508 0.000000 0.000000
-0.45735699 -0.10664400 3.53614211 0.000000 0.000000
-0.46166599 -0.11508100 3.54410601 0.000000 0.000000
-0.44040501 -0.07409400 3.50683498 0.000000 0.000000
-0.45180199 -0.08984000 3.46441007 0.000000 0.000000
-0.59901899 -0.01717100 3.60337496 0.000000 0.000000
-0.61274397 -0.02374300 3.58422709 0.000000 0.000000
-0.55289000 -0.17458101 3.53683805 0.000000 0.000000
-0.55923897 -0.19652000 3.56522393 0.000000 0.000000
-0.37901399 0.14826800 3.60879397 0.000000 0.000000
-0.40156901 0.15368301 3.68381691 0.000000 0.000000
-0.44356301 0.16081300 3.67030501 0.000000 0.000000
-0.50377202 -0.15731500 3.54864311 0.000000 0.000000
-0.49765900 -0.15508699 3.55334592 0.000000 0.000000
-0.56650800 -0.12755001 3.60188508 0.000000 0.000000
-0.51954401 -0.16415000 3.54881001 0.000000 0.000000
-0.56490999 -0.14716400 3.58985305 0.000000 0.000000
-0.52304202 -0.13500699 3.48865390 0.000000 0.000000
-0.58941197 -0.10172500 3.55175090 0.000000 0.000000
-0.52146602 -0.12348200 3.46429110 0.000000 0.000000
-0.59142399 -0.09272700 3.52622700 0.000000 0.000000
-0.43705499 0.12400300 3.72673798 0.000000 0.000000
-0.41593599 0.12908000 3.71970201 0.000000 0.000000
-0.47759500 0.16588899 3.66305900 0.000000 0.000000
-0.49041399 0.15606999 3.66761708 0.000000 0.000000
-0.43004000 -0.05187400 3.51498890 0.000000 0.000000
-0.44106600 -0.07872800 3.51664400 0.000000 0.000000
-0.43167901 -0.06282200 3.52660394 0.000000 0.000000
-0.43755099 -0.05240500 3.46420407 0.000000 0.000000
-0.58602899 0.00663000 3.60979009 0.000000 0.000000
-0.59717703 -0.00043400 3.59347391 0.000000 0.000000
-0.40598100 0.03711800 3.52530789 0.000000 0.000000
-0.51672602 0.06234900 3.69963098 0.000000 0.000000
-0.50147498 0.05692000 3.71878195 0.000000 0.000000
-0.40810999 0.05292800 3.49918699 0.000000 0.000000
-0.54513699 0.09051300 3.62998891 0.000000 0.000000
-0.42177799 0.00857500 3.47500396 0.000000 0.000000
-0.55634201 0.07012400 3.62126708 0.000000 0.000000
-0.55343503 0.07385400 3.62478995 0.000000 0.000000
-0.57395202 -0.17660500 3.57385898 0.000000 0.000000
-0.53595299 -0.18184100 3.54849696 0.000000 0.000000
-0.56943101 -0.16757999 3.58431196 0.000000 0.000000
-0.53567398 -0.12576300 3.48434401 0.000000 0.000000
-0.54072303 -0.12121100 3.48130989 0.000000 0.000000
-0.46955699 -0.10755200 3.44273710 0.000000 0.000000
-0.61854702 -0.04292500 3.58211803 0.000000 0.000000
-0.62162399 -0.03803200 3.57733202 0.000000 0.000000
-0.46336699 -0.11711300 3.54160905 0.000000 0.000000
-0.57212299 -0.05839000 3.63165092 0.000000 0.000000
-0.47547099 -0.14362700 3.56613994 0.000000 0.000000
-0.49280500 -0.13003500 3.47172689 0.000000 0.000000
-0.60884398 -0.07616100 3.56908202 0.000000 0.000000
-0.61482400 -0.07009800 3.56201506 0.000000 0.000000
-0.47803199 -0.14398700 3.55581188 0.000000 0.000000
-0.47952700 -0.14712900 3.56302595 0.000000 0.000000
-0.49330699 -0.15310200 3.54544497 0.000000 0.000000
-0.57155800 -0.11465100 3.61411500 0.000000 0.000000
-0.46925101 0.10183100 3.73411894 0.000000 0.000000
-0.45760399 0.11689400 3.73236299 0.000000 0.000000
-0.40251800 0.12269200 3.52597904 0.000000 0.000000
-0.49505699 0.13574600 3.68739009 0.000000 0.000000
-0.50090301 0.13419101 3.67918897 0.000000 0.000000
-0.63574201 0.11906200 3.34067798 0.000000 0.000000
-0.46744499 0.07571700 3.41116810 0.000000 0.000000
-0.58050799 0.11816400 3.47159600 0.000000 0.000000
-0.57756001 0.12094600 3.47590494 0.000000 0.000000
-0.46346101 0.12549800 3.42465806 0.000000 0.000000
-0.54563302 0.15985800 3.50652194 0.000000 0.000000
-0.54472500 0.16798200 3.49826694 0.000000 0.000000
-0.58702600 0.07830500 3.49369907 0.000000 0.000000
-0.58570701 0.10733700 3.46921897 0.000000 0.000000
-0.60992497 0.06628000 3.33729100 0.000000 0.000000
-0.20428900 0.22021399 3.76737595 0.000000 0.000000
-0.20994000 0.21912199 3.76010489 0.000000 0.000000
-0.22312100 0.21521200 3.77357292 0.000000 0.000000
-0.20187999 0.21887900 3.78829598 0.000000 0.000000
-0.18366000 0.22619200 3.77662492 0.000000 0.000000
-0.15624000 -0.12158800 3.66445303 0.000000 0.000000
-0.16308901 -0.13249500 3.69075203 0.000000 0.000000
-0.12845300 -0.12727900 3.66096306 0.000000 0.000000
-0.15184399 -0.13823099 3.69234204 0.000000 0.000000
-0.58046001 -0.09193300 3.49589491 0.000000 0.000000
-0.56919199 -0.09639100 3.48588109 0.000000 0.000000
-0.49033201 0.16455001 3.43230605 0.000000 0.000000
-0.50459099 0.17192000 3.45100808 0.000000 0.000000
-0.57483602 0.16828699 3.32439590 0.000000 0.000000
-0.54656798 0.18176900 3.36459494 0.000000 0.000000
-0.51619399 0.17151199 3.38261700 0.000000 0.000000
-0.40862900 0.11334800 3.60083508 0.000000 0.000000
-0.41525400 0.09861600 3.59352994 0.000000 0.000000
-0.44194400 0.10880700 3.64015508 0.000000 0.000000
-0.42807201 0.09816500 3.61236000 0.000000 0.000000
-0.41411099 0.11586600 3.60850501 0.000000 0.000000
-0.44018400 0.08857300 3.62006211 0.000000 0.000000
-0.45131701 0.15812699 3.50290704 0.000000 0.000000
-0.47713700 0.16915800 3.53701901 0.000000 0.000000
-0.46696401 0.16603699 3.50489211 0.000000 0.000000
-0.46522599 0.16686700 3.53314209 0.000000 0.000000
-0.57305700 -0.11276600 3.51582098 0.000000 0.000000
-0.56158698 -0.11161800 3.49777007 0.000000 0.000000
-0.55911303 -0.12459300 3.52241611 0.000000 0.000000
-0.38648999 0.16142100 3.63256598 0.000000 0.000000
0.08641200 0.25323701 3.99210811 0.000000 0.000000
-0.43163899 0.15287200 3.55398011 0.000000 0.000000
-0.43772000 0.15379800 3.53563905 0.000000 0.000000
-0.45095000 0.15650301 3.50411892 0.000000 0.000000
-0.43296099 0.15324500 3.60082698 0.000000 0.000000
-0.46069899 0.16239400 3.55182290 0.000000 0.000000
-0.40852800 0.14700800 3.62854910 0.000000 0.000000
-0.42438599 0.15246500 3.59861898 0.000000 0.000000
-0.43270099 0.15316901 3.55275702 0.000000 0.000000
-0.47369099 0.16183899 3.47994494 0.000000 0.000000
-0.47455901 0.16365400 3.49964809 0.000000 0.000000
-0.44777301 0.15679701 3.54056692 0.000000 0.000000
-0.43282899 0.15527201 3.58187008 0.000000 0.000000
-0.45765501 0.16227500 3.54915190 0.000000 0.000000
-0.46822599 0.15892100 3.45772910 0.000000 0.000000
-0.49805400 0.17251500 3.47440600 0.000000 0.000000
-0.47777501 0.16741300 3.47621107 0.000000 0.000000
-0.47307900 0.16731299 3.49476004 0.000000 0.000000
-0.57470500 0.16316800 3.29747009 0.000000 0.000000
-0.30548999 0.19735201 3.66705990 0.000000 0.000000
-0.35342401 0.17749199 3.67963696 0.000000 0.000000
-0.31633100 0.20244800 3.67867494 0.000000 0.000000
-0.31473699 0.20427600 3.68943810 0.000000 0.000000
-0.59286499 0.15137801 3.29864812 0.000000 0.000000
-0.58458197 0.14191200 3.29216003 0.000000 0.000000
-0.56043202 0.06488300 3.32185698 0.000000 0.000000
-0.61293203 0.09757200 3.41510391 0.000000 0.000000
-0.62896198 0.09440100 3.34697604 0.000000 0.000000
-0.63398802 0.10357600 3.35641789 0.000000 0.000000
-0.58611000 0.14213599 3.44830489 0.000000 0.000000
-0.48890400 0.09406200 3.37147593 0.000000 0.000000
-0.57810700 0.15032500 3.45762610 0.000000 0.000000
-0.49897200 0.08128500 3.36354303 0.000000 0.000000
-0.50076097 0.07497200 3.36504698 0.000000 0.000000
-0.62553102 0.15029000 3.37578607 0.000000 0.000000
-0.55363601 0.14200100 3.29233909 0.000000 0.000000
-0.62192500 0.14550200 3.38576508 0.000000 0.000000
-0.58740002 0.19973600 3.33624411 0.000000 0.000000
-0.52438301 0.15163200 3.30267906 0.000000 0.000000
-0.60283399 0.19334801 3.35243797 0.000000 0.000000
-0.53171903 0.11789300 3.30461097 0.000000 0.000000
-0.51927400 0.09570700 3.32731700 0.000000 0.000000
-0.52574998 0.07326600 3.33830810 0.000000 0.000000
-0.59535497 0.09649300 3.45522404 0.000000 0.000000
-0.59356397 0.08622500 3.46760011 0.000000 0.000000
-0.59396303 0.04540600 3.49452996 0.000000 0.000000
-0.59223503 0.06665900 3.48556900 0.000000 0.000000
-0.60738701 -0.02146400 3.50193501 0.000000 0.000000
-0.49487200 -0.02837700 3.42419791 0.000000 0.000000
-0.49721599 -0.03616600 3.42539811 0.000000 0.000000
-0.51279598 -0.02348300 3.41866302 0.000000 0.000000
-0.60560602 0.05976600 3.44081712 0.000000 0.000000
-0.60053802 0.03226600 3.46850395 0.000000 0.000000
-0.59696198 0.10236100 3.44793797 0.000000 0.000000
-0.50951803 0.06899100 3.35957193 0.000000 0.000000
-0.56749701 0.20197000 3.33024502 0.000000 0.000000
-0.13254599 0.66069102 4.39368820 0.000000 0.000000
-0.06426800 0.71830100 4.17755413 0.000000 0.000000
-0.18011799 0.68700099 4.35564089 0.000000 0.000000
-0.17792000 0.69446099 4.34185123 0.000000 0.000000
-0.07178400 0.69903499 4.18251419 0.000000 0.000000
-0.15722799 0.64609402 4.35421515 0.000000 0.000000
1.33813095 0.52344197 3.72922111 0.000000 0.000000
1.34495795 0.49147499 3.65413189 0.000000 0.000000
1.08441305 0.57621002 3.98391795 0.000000 0.000000
-0.11268600 0.65109199 4.27844620 0.000000 0.000000
-0.11322100 0.65696502 4.28100681 0.000000 0.000000
1.30740595 0.52215803 3.71858597 0.000000 0.000000
1.33198094 0.47549900 3.59190011 0.000000 0.000000
1.13055599 0.53131002 3.97888207 0.000000 0.000000
1.10534501 0.54750299 3.97447109 0.000000 0.000000
1.32958496 0.47933200 3.65656710 0.000000 0.000000
1.08893204 0.52245700 4.06016922 0.000000 0.000000
1.32612896 0.48821300 3.66999888 0.000000 0.000000
0.99436897 0.31834999 3.49313903 0.000000 0.000000
0.98816103 0.29220599 3.49393296 0.000000 0.000000
1.02298105 0.16540299 3.83875394 0.000000 0.000000
0.98469901 0.32133099 3.49338007 0.000000 0.000000
0.96517497 0.30744100 3.49281693 0.000000 0.000000
0.97608203 0.14176700 3.86886096 0.000000 0.000000
0.96788502 0.34985101 3.50589991 0.000000 0.000000
0.98804498 0.16058099 3.87459397 0.000000 0.000000
0.97824299 0.16741200 3.88106394 0.000000 0.000000
0.93093598 0.34232399 3.50577402 0.000000 0.000000
0.91814703 0.35215300 3.51951909 0.000000 0.000000
0.93402398 0.14911000 3.89014006 0.000000 0.000000
0.94541198 0.15463600 3.88828611 0.000000 0.000000
0.85265100 0.35924801 3.55989599 0.000000 0.000000
0.86774498 0.36179700 3.56967211 0.000000 0.000000
0.86503297 0.36181900 3.57861590 0.000000 0.000000
0.83820802 0.14641100 3.88676405 0.000000 0.000000
0.83003098 0.14732400 3.88510799 0.000000 0.000000
0.88158798 0.36217201 3.55573606 0.000000 0.000000
0.89641798 0.36309099 3.54696608 0.000000 0.000000
0.89032799 0.13876900 3.89658809 0.000000 0.000000
0.88766801 0.15152100 3.89417601 0.000000 0.000000
0.88204497 0.13784400 3.89547491 0.000000 0.000000
0.96882600 0.33632401 3.60176206 0.000000 0.000000
0.93231398 0.25330299 3.83402300 0.000000 0.000000
0.96460497 0.34370199 3.59852290 0.000000 0.000000
0.90583599 0.23391201 3.85197902 0.000000 0.000000
0.93772501 0.29288799 3.61988497 0.000000 0.000000
0.93615699 0.29542699 3.62068510 0.000000 0.000000
0.94612998 0.31051299 3.61645889 0.000000 0.000000
0.90193999 0.23420200 3.81849003 0.000000 0.000000
0.97159201 0.30559000 3.60749197 0.000000 0.000000
0.96640700 0.30760500 3.60892701 0.000000 0.000000
0.91643101 0.23494500 3.80381203 0.000000 0.000000
0.98792303 0.36728701 3.53615904 0.000000 0.000000
0.98193502 0.36288300 3.52123690 0.000000 0.000000
0.98786700 0.20220301 3.89131689 0.000000 0.000000
0.95672202 0.36875901 3.54989290 0.000000 0.000000
0.96095097 0.19256100 3.89341903 0.000000 0.000000
0.94935298 0.21909299 3.89035606 0.000000 0.000000
0.99374801 0.25071600 3.56054997 0.000000 0.000000
0.97209698 0.19229500 3.76923990 0.000000 0.000000
0.97377998 0.19498500 3.77044511 0.000000 0.000000
1.01855302 0.25794899 3.54054904 0.000000 0.000000
1.00204694 0.20509100 3.78279996 0.000000 0.000000
1.00358796 0.20323400 3.78309608 0.000000 0.000000
1.07077301 0.27054900 3.49628401 0.000000 0.000000
1.03750002 0.20039800 3.79043794 0.000000 0.000000
1.04493499 0.26496300 3.49721098 0.000000 0.000000
1.07286704 0.19815201 3.80406904 0.000000 0.000000
1.04923701 0.29168901 3.48291302 0.000000 0.000000
1.01511204 0.28698501 3.49104309 0.000000 0.000000
1.04584503 0.17420000 3.81169796 0.000000 0.000000
0.97068000 0.26750901 3.59946489 0.000000 0.000000
0.97885197 0.25922099 3.59198308 0.000000 0.000000
0.94124901 0.22170299 3.77642989 0.000000 0.000000
0.93931597 0.24030600 3.79514098 0.000000 0.000000
1.01201403 0.26547799 3.57553697 0.000000 0.000000
0.99829799 0.26336700 3.58315301 0.000000 0.000000
0.95727903 0.21413399 3.76699495 0.000000 0.000000
1.03895605 0.30875400 3.48445797 0.000000 0.000000
1.02945006 0.18207701 3.85737205 0.000000 0.000000
1.04241395 0.19218300 3.85427308 0.000000 0.000000
1.01475799 0.29635400 3.49042201 0.000000 0.000000
1.03694797 0.17635900 3.83524609 0.000000 0.000000
1.02503002 0.17527901 3.85214210 0.000000 0.000000
1.03217399 0.33556700 3.48804808 0.000000 0.000000
1.01268196 0.17738099 3.87117195 0.000000 0.000000
1.00919998 0.35666800 3.50722909 0.000000 0.000000
0.98725200 0.19990499 3.89123297 0.000000 0.000000
1.00959396 0.37102401 3.54840803 0.000000 0.000000
0.97355098 0.24438301 3.88399506 0.000000 0.000000
0.99402797 0.36183399 3.57485509 0.000000 0.000000
0.95960301 0.25213099 3.87348890 0.000000 0.000000
1.06304300 0.29503399 3.58125496 0.000000 0.000000
0.99108100 0.27342099 3.80464196 0.000000 0.000000
0.95912099 0.26308599 3.82064700 0.000000 0.000000
1.09653795 0.27853099 3.51665902 0.000000 0.000000
1.09370899 0.25610900 3.80025196 0.000000 0.000000
1.06235397 0.27360201 3.55046296 0.000000 0.000000
1.03816104 0.24954300 3.78996205 0.000000 0.000000
1.03634095 0.36537799 3.50847507 0.000000 0.000000
1.00517797 0.21730199 3.89004302 0.000000 0.000000
1.00633299 0.36352399 3.52209401 0.000000 0.000000
0.98293298 0.22447699 3.88973188 0.000000 0.000000
1.07398701 0.29737201 3.47142005 0.000000 0.000000
1.08109701 0.21982700 3.85058403 0.000000 0.000000
1.04848504 0.30998200 3.48285103 0.000000 0.000000
1.07347703 0.21617299 3.85288191 0.000000 0.000000
1.10281396 0.22194199 3.81951594 0.000000 0.000000
1.07543695 0.28228399 3.47489095 0.000000 0.000000
1.08410394 0.20736299 3.81479406 0.000000 0.000000
1.03711700 0.26503101 3.79159594 0.000000 0.000000
1.05703998 0.28536701 3.57180309 0.000000 0.000000
1.01226604 0.25335500 3.78944302 0.000000 0.000000
1.00771999 0.32902199 3.59773111 0.000000 0.000000
1.00078499 0.34130001 3.59228897 0.000000 0.000000
0.94774699 0.25636601 3.86442709 0.000000 0.000000
1.04717004 0.34826499 3.48897910 0.000000 0.000000
1.03992403 0.21502000 3.88134193 0.000000 0.000000
1.02704000 0.35725001 3.50032902 0.000000 0.000000
-0.60053098 0.02104800 3.47149801 0.000000 0.000000
-0.52888101 -0.00120700 3.39819789 0.000000 0.000000
-0.51200002 0.00468700 3.40211511 0.000000 0.000000
-0.51599503 -0.00807700 3.40852904 0.000000 0.000000
-0.51708102 -0.03854500 3.42319894 0.000000 0.000000
-0.48074800 -0.22995700 3.68864489 0.000000 0.000000
-0.60545701 -0.19123299 3.68169308 0.000000 0.000000
-0.63456398 -0.20251600 3.67899799 0.000000 0.000000
-0.47851500 -0.24759600 3.66462708 0.000000 0.000000
-0.46834800 -0.23023599 3.64764309 0.000000 0.000000
-0.63580900 -0.15716800 3.67453408 0.000000 0.000000
-0.45807099 -0.30934101 3.66813207 0.000000 0.000000
-0.46085799 -0.30284101 3.65139103 0.000000 0.000000
-0.53579301 -0.04322000 3.67655492 0.000000 0.000000
-0.42651001 -0.08328300 3.56111503 0.000000 0.000000
-0.53353399 -0.06511700 3.68087006 0.000000 0.000000
-0.54860598 0.18707301 3.35224891 0.000000 0.000000
-0.54192197 0.18673600 3.35489511 0.000000 0.000000
-0.55392098 -0.16644500 3.54202294 0.000000 0.000000
-0.55183798 -0.14950299 3.52759290 0.000000 0.000000
-0.55716199 -0.13874300 3.53782892 0.000000 0.000000
-0.09135500 0.76968497 4.21360588 0.000000 0.000000
-0.16467400 0.69298297 4.39791584 0.000000 0.000000
-0.15624100 0.73500901 4.32045889 0.000000 0.000000
-0.05595100 0.76249599 4.18027210 0.000000 0.000000
-0.09992900 0.72946101 4.24127722 0.000000 0.000000
1.00823903 0.59491199 4.02395391 0.000000 0.000000
1.01781094 0.58236700 4.00605679 0.000000 0.000000
1.31491196 0.62537700 3.67169404 0.000000 0.000000
1.27570403 0.59838998 3.69180202 0.000000 0.000000
1.27635205 0.57420599 3.66918612 0.000000 0.000000
1.00584602 0.55242002 4.03850412 0.000000 0.000000
0.99940097 0.57756698 4.04846716 0.000000 0.000000
-0.63117898 0.09798000 3.37224603 0.000000 0.000000
-0.53883702 0.07194700 3.32763410 0.000000 0.000000
-0.53908002 0.08813400 3.31350899 0.000000 0.000000
-0.62583500 0.14242600 3.38101292 0.000000 0.000000
-0.44617701 -0.03535200 3.54056692 0.000000 0.000000
-0.43938199 -0.00647600 3.54450011 0.000000 0.000000
-0.43296799 -0.15879300 3.59452295 0.000000 0.000000
-0.55711800 -0.06242400 3.67946005 0.000000 0.000000
-0.44033200 -0.17628901 3.59914494 0.000000 0.000000
-0.57694900 -0.08580700 3.68656898 0.000000 0.000000
-0.43062299 -0.25652099 3.64229989 0.000000 0.000000
-0.60189402 -0.11154100 3.70909190 0.000000 0.000000
-0.59911698 -0.11936000 3.71159005 0.000000 0.000000
-0.43661499 -0.18995300 3.60232306 0.000000 0.000000
-0.42971799 -0.17893900 3.60738707 0.000000 0.000000
-0.56920898 -0.08125400 3.69569111 0.000000 0.000000
-0.45822701 -0.28610301 3.63382912 0.000000 0.000000
-0.46861801 -0.28463900 3.63426709 0.000000 0.000000
-0.46941200 -0.31138301 3.65831208 0.000000 0.000000
-0.69387102 -0.17869300 3.71390200 0.000000 0.000000
-0.47463399 -0.31214100 3.65572000 0.000000 0.000000
-0.68716502 -0.16294900 3.69911909 0.000000 0.000000
-0.65988803 -0.20485500 3.65650296 0.000000 0.000000
-0.49740499 -0.22073799 3.65974212 0.000000 0.000000
-0.63176501 -0.18759100 3.64272690 0.000000 0.000000
-0.56141901 0.15566599 3.29349399 0.000000 0.000000
-0.56242800 0.17956200 3.30279207 0.000000 0.000000
-0.48695499 -0.09218200 3.42365909 0.000000 0.000000
-0.59375799 0.03123200 3.51546192 0.000000 0.000000
-0.61553597 0.09492700 3.31717110 0.000000 0.000000
-0.52928400 -0.19891401 3.62856698 0.000000 0.000000
-0.52547503 -0.18808600 3.63385797 0.000000 0.000000
-0.52539700 -0.17472300 3.64144993 0.000000 0.000000
-0.44301900 0.16659801 3.55750299 0.000000 0.000000
-0.42634201 0.15818501 3.55026388 0.000000 0.000000
-0.40299001 0.15841500 3.61151695 0.000000 0.000000
-0.40870401 0.16012900 3.62856507 0.000000 0.000000
-0.41130999 0.16010100 3.59902406 0.000000 0.000000
-0.58729899 -0.02212600 3.41960692 0.000000 0.000000
-0.58736300 -0.00062100 3.39483190 0.000000 0.000000
-0.59349698 0.02834600 3.36628008 0.000000 0.000000
-0.06739700 0.73726201 4.18182182 0.000000 0.000000
-0.12837800 0.62663502 4.35529995 0.000000 0.000000
-0.07069600 0.68551302 4.19377089 0.000000 0.000000
-0.15124901 0.57074398 4.25657797 0.000000 0.000000
-0.15136001 0.60162598 4.28772783 0.000000 0.000000
-0.17348200 0.71093500 4.33531713 0.000000 0.000000
-0.15110800 0.61377299 4.28813410 0.000000 0.000000
-0.04120400 0.66263700 4.15582085 0.000000 0.000000
-0.03140400 0.71223599 4.16199589 0.000000 0.000000
-0.14878400 0.57313597 4.28994083 0.000000 0.000000
-0.04623200 0.55887598 4.11474514 0.000000 0.000000
-0.14777100 0.58729702 4.29994822 0.000000 0.000000
-0.05298200 0.61144102 4.15667009 0.000000 0.000000
-0.15064301 0.58875901 4.28284407 0.000000 0.000000
-0.04737900 0.56798398 4.12283802 0.000000 0.000000
-0.14964899 0.56978500 4.27782106 0.000000 0.000000
-0.15064800 0.52858400 4.23329496 0.000000 0.000000
-0.11077900 0.66750801 4.28688908 0.000000 0.000000
-0.02482500 0.70137501 4.27121210 0.000000 0.000000
-0.01993000 0.68366498 4.25694609 0.000000 0.000000
-0.01821300 0.69258600 4.15698004 0.000000 0.000000
-0.01377300 0.67656201 4.15167379 0.000000 0.000000
-0.15545200 0.63825500 4.33936405 0.000000 0.000000
-0.06248900 0.66244000 4.21147919 0.000000 0.000000
-0.15998399 0.64338201 4.33441591 0.000000 0.000000
-0.05450300 0.70095599 4.26922178 0.000000 0.000000
-0.12306600 0.71897501 4.30236912 0.000000 0.000000
-0.05154500 0.67202097 4.24286699 0.000000 0.000000
0.01858800 0.65295702 4.20548487 0.000000 0.000000
-0.07770600 0.64771998 4.30098915 0.000000 0.000000
-0.11762400 0.45529300 4.22669983 0.000000 0.000000
-0.11541400 0.44958299 4.22266912 0.000000 0.000000
-0.04233600 0.53217202 4.10237122 0.000000 0.000000
-0.15011300 0.50140703 4.19689322 0.000000 0.000000
-0.04154400 0.48419100 4.06573391 0.000000 0.000000
-0.15414301 0.47538900 4.18852711 0.000000 0.000000
-0.15288800 0.47034901 4.17641687 0.000000 0.000000
-0.07381100 0.49447900 4.21396589 0.000000 0.000000
0.03793600 0.52712601 4.09818792 0.000000 0.000000
0.02293900 0.52583897 4.12608290 0.000000 0.000000
-0.09209300 0.53741902 4.20982313 0.000000 0.000000
0.01409400 0.53006703 4.13838482 0.000000 0.000000
-0.09895300 0.51489002 4.18266201 0.000000 0.000000
-0.03389000 0.54664600 4.08313179 0.000000 0.000000
-0.02626700 0.52368498 4.05391693 0.000000 0.000000
-0.14134599 0.46103200 4.21899319 0.000000 0.000000
-0.03532300 0.46807900 4.02669001 0.000000 0.000000
-0.15343800 0.42019701 4.17250681 0.000000 0.000000
-0.03793600 0.48406601 4.03963709 0.000000 0.000000
-0.01801200 0.43404600 4.06128883 0.000000 0.000000
-0.13717400 0.44882599 4.12997580 0.000000 0.000000
-0.01649300 0.45089501 4.07927084 0.000000 0.000000
-0.14115700 0.48012501 4.16121197 0.000000 0.000000
-0.09738500 0.42417401 4.20661116 0.000000 0.000000
0.00538800 0.52223301 4.04246283 0.000000 0.000000
-0.02454000 0.52314001 4.05208206 0.000000 0.000000
-0.12570600 0.47493401 4.23789215 0.000000 0.000000
-0.13243701 0.43914500 4.21106482 0.000000 0.000000
0.02527400 0.56509203 4.09605503 0.000000 0.000000
-0.07991300 0.50778502 4.24156284 0.000000 0.000000
0.03471100 0.51882303 4.06713915 0.000000 0.000000
-0.07562500 0.47418800 4.20610189 0.000000 0.000000
-0.09118100 0.49271801 4.24549484 0.000000 0.000000
-0.08968400 0.46680200 4.22140884 0.000000 0.000000
0.04419200 0.46099901 4.07482290 0.000000 0.000000
0.04132000 0.48974299 4.08468199 0.000000 0.000000
-0.07841000 0.47829300 4.16924095 0.000000 0.000000
-0.01285700 0.52365398 4.14417219 0.000000 0.000000
-0.01491900 0.48294601 4.10755491 0.000000 0.000000
-0.13363700 0.54021800 4.20652199 0.000000 0.000000
-0.03157500 0.63356698 4.21859407 0.000000 0.000000
-0.04503700 0.67080498 4.24345207 0.000000 0.000000
-0.04063600 0.65773499 4.23366499 0.000000 0.000000
-0.12823801 0.67195100 4.28954887 0.000000 0.000000
-0.10162800 0.74438697 4.21787977 0.000000 0.000000
-0.09804900 0.72558802 4.24908018 0.000000 0.000000
-0.18212201 0.71077001 4.37103415 0.000000 0.000000
-0.07153600 0.68717599 4.18793583 0.000000 0.000000
-0.17350800 0.70179600 4.39129591 0.000000 0.000000
-0.16100000 0.70097202 4.40411520 0.000000 0.000000
-0.16839300 0.72932601 4.33160591 0.000000 0.000000
-0.06189600 0.65850699 4.21641684 0.000000 0.000000
-0.13649601 0.61731702 4.34095478 0.000000 0.000000
-0.15178201 0.62511998 4.32047081 0.000000 0.000000
-0.15117501 0.63006300 4.30474186 0.000000 0.000000
-0.15376100 0.64726597 4.36647797 0.000000 0.000000
-0.18065500 0.69336599 4.34860182 0.000000 0.000000
-0.13637200 0.68279803 4.40643883 0.000000 0.000000
-0.13876900 0.66092700 4.39131212 0.000000 0.000000
-0.11111200 0.62140697 4.35803986 0.000000 0.000000
-0.03799400 0.74352503 4.16950083 0.000000 0.000000
-0.12210400 0.64168602 4.37873077 0.000000 0.000000
-0.06230900 0.69463599 4.26077795 0.000000 0.000000
-0.05771400 0.70894498 4.27478409 0.000000 0.000000
-0.06008000 0.67497200 4.24077606 0.000000 0.000000
-0.14249700 0.62236297 4.33908701 0.000000 0.000000
-0.12369900 0.59818798 4.33319187 0.000000 0.000000
-0.06838700 0.67117202 4.19626379 0.000000 0.000000
-0.04603300 0.57436699 4.11571693 0.000000 0.000000
-0.04135200 0.54691702 4.09669209 0.000000 0.000000
-0.04101300 0.57560003 4.10809278 0.000000 0.000000
-0.04065600 0.60952699 4.12680578 0.000000 0.000000
-0.05328700 0.61552900 4.18560410 0.000000 0.000000
-0.04295000 0.59270501 4.17598200 0.000000 0.000000
-0.03982500 0.58721602 4.17356491 0.000000 0.000000
-0.14163101 0.58341801 4.24912691 0.000000 0.000000
-0.03692500 0.58590001 4.17472506 0.000000 0.000000
-0.13564099 0.55918199 4.22402477 0.000000 0.000000
-0.07425000 0.68320602 4.22261286 0.000000 0.000000
0.00190600 0.67130297 4.23464680 0.000000 0.000000
-0.08942900 0.76040202 4.24296188 0.000000 0.000000
-0.08844900 0.77393502 4.21188879 0.000000 0.000000
-0.07422000 0.64500600 4.31432009 0.000000 0.000000
-0.08100900 0.65879101 4.31229305 0.000000 0.000000
-0.06413500 0.73523802 4.28326321 0.000000 0.000000
-0.07470800 0.63828999 4.35625696 0.000000 0.000000
-0.04023800 0.71692997 4.28216410 0.000000 0.000000
0.00528300 0.72129601 4.17757416 0.000000 0.000000
-0.07730400 0.77397299 4.20373011 0.000000 0.000000
-0.05383500 0.72491199 4.28513384 0.000000 0.000000
-0.01265000 0.70615399 4.26527882 0.000000 0.000000
-0.10814200 0.72738701 4.33328390 0.000000 0.000000
-0.04048100 0.75745302 4.23586893 0.000000 0.000000
0.00234200 0.74834102 4.18980694 0.000000 0.000000
0.00656900 0.69756103 4.20303297 0.000000 0.000000
-0.10155900 0.68822998 4.40724087 0.000000 0.000000
-0.13218600 0.71006602 4.39385319 0.000000 0.000000
-0.14884900 0.73146600 4.36856699 0.000000 0.000000
-0.12090500 0.73788399 4.33571815 0.000000 0.000000
-0.03775300 0.73264301 4.28236485 0.000000 0.000000
-0.08636900 0.69452101 4.39178324 0.000000 0.000000
-0.09891500 0.69203299 4.31160212 0.000000 0.000000
-0.01085900 0.71315402 4.25869989 0.000000 0.000000
-0.11283000 0.73038799 4.34808922 0.000000 0.000000
-0.08665000 0.69833601 4.37122583 0.000000 0.000000
-0.07502400 0.67796499 4.37380123 0.000000 0.000000
-0.08771700 0.67119497 4.33276892 0.000000 0.000000
-0.08553200 0.69196498 4.39548397 0.000000 0.000000
-0.08981300 0.64234799 4.27162409 0.000000 0.000000
0.00734100 0.65716499 4.22571802 0.000000 0.000000
-0.08711200 0.66173398 4.38928080 0.000000 0.000000
-0.11345400 0.73265302 4.33283710 0.000000 0.000000
-0.02432000 0.72240901 4.27754211 0.000000 0.000000
-0.02296300 0.75077999 4.23965788 0.000000 0.000000
-0.15334800 0.71608001 4.39681101 0.000000 0.000000
-0.04761500 0.77405101 4.19598913 0.000000 0.000000
-0.04691900 0.76065803 4.23074484 0.000000 0.000000
-0.06777600 0.75905901 4.24439287 0.000000 0.000000
