0.44821700 -0.12966700 3.98544407 2.000000
0.43151399 -0.12238800 3.97496605 2.000000
0.66025698 0.07077800 3.72841811 2.000000
0.65270197 0.09166600 3.73258710 2.000000
0.65751803 0.09053800 3.73423791 2.000000
0.48219401 -0.11047200 4.04399920 2.000000
0.46603999 -0.11834500 4.01765680 2.000000
0.45846200 -0.12786900 3.99850202 2.000000
0.68376899 0.07816400 3.74100208 2.000000
0.67133802 0.06376900 3.73037601 2.000000
0.66732299 0.06544100 3.72935796 2.000000
0.46342099 -0.13490900 3.99470711 2.000000
0.49126899 -0.13557599 4.02069712 2.000000
0.49193901 -0.12656499 4.03341293 2.000000
0.49915400 -0.13843501 4.02447987 2.000000
0.48834300 -0.14318900 4.00767517 2.000000
0.82389599 -0.05217400 3.82103109 2.000000
0.83107698 -0.09252000 3.82762599 2.000000
0.84935302 -0.07513900 3.84232593 2.000000
0.84524602 -0.07073900 3.83887792 2.000000
0.65315902 -0.20731400 4.04342604 2.000000
0.65923798 -0.18494500 4.07895517 2.000000
0.81941801 -0.10115800 3.81812191 2.000000
0.85286498 -0.11175600 3.84476209 2.000000
0.83241898 -0.09482900 3.82867098 2.000000
0.84208697 -0.09044500 3.83650899 2.000000
0.66394001 -0.21367100 4.04778290 2.000000
0.66231298 -0.20980200 4.04928398 2.000000
0.86038601 0.10745500 4.03519583 2.000000
0.84661698 0.10707100 4.02972317 2.000000
0.70573097 0.00632500 4.20224905 2.000000
0.60488302 0.21032301 4.02141619 2.000000
0.60621101 0.21121500 4.01928806 2.000000
0.63480699 0.19526200 4.05480194 2.000000
0.60041201 0.21130501 4.01936388 2.000000
0.56403899 0.20955300 4.02213907 2.000000
0.60449803 0.19247900 4.05399418 2.000000
0.63193703 0.19569100 4.05380487 2.000000
0.65031397 0.21052399 4.00722313 2.000000
0.60864198 0.22215800 3.99285603 2.000000
0.62385303 0.21464700 4.00709486 2.000000
0.63993198 0.21419200 4.00152206 2.000000
0.56252402 0.18502800 4.05779600 2.000000
0.61056399 0.17383701 4.07626009 2.000000
0.59191298 0.16570200 4.08294487 2.000000
0.73600602 0.18765900 3.90881610 2.000000
0.75470299 0.18099500 3.94143200 2.000000
0.73994702 0.18657900 3.91837597 2.000000
0.73794901 0.18909501 3.92983294 2.000000
0.58815700 0.01702400 4.15251398 2.000000
0.55177200 0.04062000 4.13822699 2.000000
0.59172702 0.03832700 4.14935398 2.000000
0.70901400 0.20314200 3.90896606 2.000000
0.73177701 0.19231699 3.92734694 2.000000
0.70961100 0.20419499 3.91996002 2.000000
0.58589101 0.06554300 4.14225483 2.000000
0.58243001 0.05624400 4.14339399 2.000000
0.56317198 0.07980700 4.13283682 2.000000
0.63756502 0.23110899 3.92051101 2.000000
0.63219798 0.23196401 3.90195489 2.000000
0.64332199 0.22896500 3.90778899 2.000000
0.51147699 0.12580000 4.09354591 2.000000
0.52150702 0.12343500 4.09898090 2.000000
0.65458202 0.22643600 3.93806410 2.000000
0.66806000 0.22227600 3.94021106 2.000000
0.64409697 0.22955500 3.94446802 2.000000
0.54635698 0.13837001 4.10023499 2.000000
0.55129099 0.09751700 4.12452221 2.000000
0.77459300 -0.09975300 3.78930998 2.000000
0.75037700 -0.11188200 3.77829599 2.000000
0.75547397 -0.12459100 3.78564811 2.000000
0.75378698 -0.12835100 3.78584194 2.000000
0.74502802 -0.13088900 3.78124905 2.000000
0.80146402 -0.09444100 3.80421805 2.000000
0.64893103 -0.21795601 4.02104712 2.000000
0.63474101 -0.21566901 4.01382780 2.000000
0.61400998 -0.22286101 3.96984601 2.000000
0.78184599 -0.15985300 3.81371188 2.000000
0.79124999 -0.15031300 3.81638694 2.000000
0.80013400 -0.14977700 3.82172608 2.000000
0.77103698 -0.14473701 3.80198503 2.000000
0.75888199 -0.14142500 3.79333806 2.000000
0.64805102 -0.23422500 3.97388911 2.000000
0.64532799 -0.23065899 3.98011088 2.000000
0.65959299 -0.24236099 3.96667004 2.000000
0.70667702 0.02160900 3.73526692 2.000000
0.69182801 0.01475400 3.72495198 2.000000
0.70041698 -0.01690500 3.72767305 2.000000
0.70051003 0.01670300 3.73079610 2.000000
0.72267699 -0.01067700 3.74276805 2.000000
0.53308803 -0.17068100 4.00816011 2.000000
0.53735298 -0.19216500 3.96871710 2.000000
0.54151100 -0.17106099 4.01492023 2.000000
0.52776301 -0.17670999 3.99126410 2.000000
0.72108400 -0.04158800 3.74209905 2.000000
0.75296003 -0.04583900 3.76510501 2.000000
0.74744397 -0.05292500 3.76149797 2.000000
0.71779901 -0.03771900 3.73956490 2.000000
0.75566399 -0.00737800 3.76520205 2.000000
0.59700298 -0.20896700 3.99504209 2.000000
0.57832301 -0.19113500 4.00964212 2.000000
0.56821299 -0.19876499 3.98540401 2.000000
0.71294898 0.11127800 3.77575994 2.000000
0.71016598 0.11305900 3.77470708 2.000000
0.73050600 0.12277100 3.79508305 2.000000
0.71564299 0.10844900 3.77616191 2.000000
0.49826199 -0.08570200 4.07809496 2.000000
0.50216001 -0.07961300 4.08573008 2.000000
0.50085700 -0.06969100 4.09232903 2.000000
0.50040603 -0.10595300 4.06423521 2.000000
0.73551601 0.09936000 3.78579307 2.000000
0.76161999 0.08348900 3.79648209 2.000000
0.72219801 0.08014000 3.76541090 2.000000
0.75457901 0.07112700 3.78450394 2.000000
0.52966797 -0.09264000 4.09620380 2.000000
0.51081198 -0.11330000 4.06569815 2.000000
0.52838099 -0.11033800 4.08067799 2.000000
0.69484198 0.20167500 3.99629402 2.000000
0.71370697 0.19653399 3.98833990 2.000000
0.71082199 0.19644900 3.99196506 2.000000
0.60943300 0.12184000 4.12061119 2.000000
0.59135902 0.13162000 4.11486197 2.000000
0.70411998 0.19370601 4.00685692 2.000000
0.69813198 0.19594300 4.00764084 2.000000
0.70127201 0.19060300 4.01765299 2.000000
0.65138298 0.12561500 4.11589289 2.000000
0.64487302 0.11415500 4.12407303 2.000000
0.66257501 0.13092300 4.11176205 2.000000
0.74853402 -0.27758601 4.00363779 2.000000
0.74993801 -0.27753299 4.00010395 2.000000
0.83129698 -0.21641199 3.88336897 2.000000
0.84582001 -0.20138501 3.87317300 2.000000
0.74102902 -0.27031600 3.98432302 2.000000
0.71071500 -0.26144999 4.01895809 2.000000
0.68165398 0.17733000 3.81092095 2.000000
0.69200897 0.15563799 3.79414797 2.000000
0.69482797 0.15221900 3.79244399 2.000000
0.68008298 0.15760000 3.78696895 2.000000
0.49668601 -0.01332000 4.11029387 2.000000
0.48702499 -0.04045000 4.09470320 2.000000
0.49378699 -0.00712900 4.11023092 2.000000
0.50122601 -0.04011600 4.10488701 2.000000
0.74359697 0.12899999 3.81095910 2.000000
0.70304197 0.14851700 3.79491711 2.000000
0.71344000 0.14288500 3.79840302 2.000000
0.70051903 0.14188300 3.78608608 2.000000
0.53105402 -0.07014800 4.11316299 2.000000
0.51529300 -0.03849500 4.11482096 2.000000
0.50828701 -0.04249300 4.10872602 2.000000
0.77070397 0.15928701 3.89412999 2.000000
0.75707698 0.16242200 3.87489700 2.000000
0.76378900 0.15927300 3.88089299 2.000000
0.59149700 -0.00676700 4.15183878 2.000000
0.57011002 -0.02376600 4.14305305 2.000000
0.59317899 -0.02802600 4.14969110 2.000000
0.75309402 0.17386501 3.89473104 2.000000
0.74562198 0.16825500 3.86590695 2.000000
0.74158001 0.18093400 3.89168501 2.000000
0.57627797 0.01467800 4.14861202 2.000000
0.52904600 0.02529800 4.13160992 2.000000
0.54853201 0.01732000 4.13859415 2.000000
0.52798200 0.04210700 4.13136911 2.000000
0.69460499 0.04179500 3.73270106 2.000000
0.70626098 0.05120200 3.74385095 2.000000
0.71618903 0.07580800 3.75910902 2.000000
0.74728698 0.05689400 3.77357888 2.000000
0.52059400 -0.15626900 4.02039719 2.000000
0.53995901 -0.14224300 4.05488014 2.000000
0.51460499 -0.12260500 4.05872917 2.000000
0.52404797 -0.12994000 4.05726814 2.000000
0.72561902 0.02579100 3.74983311 2.000000
0.76345998 0.05789200 3.78509808 2.000000
0.70987201 0.02956400 3.73953390 2.000000
0.74590600 0.01773800 3.76228595 2.000000
0.74147499 0.01993300 3.75967789 2.000000
0.56988198 -0.15599801 4.05971718 2.000000
0.54847598 -0.15861399 4.03935909 2.000000
0.55551797 -0.15988800 4.04313421 2.000000
0.55755901 -0.14755499 4.06161404 2.000000
0.58525699 -0.16918500 3.74247003 2.000000
0.56969398 -0.17925701 3.75041294 2.000000
0.59610897 -0.20094199 3.77529097 2.000000
0.57150298 -0.19912900 3.77763009 2.000000
0.58097100 -0.19769000 3.77137589 2.000000
0.53792602 -0.20373800 3.79861093 2.000000
0.60870701 -0.15836699 3.73595810 2.000000
0.60018402 -0.16228400 3.73829389 2.000000
0.58923101 -0.15297200 3.72746611 2.000000
0.58328497 -0.15514800 3.72855806 2.000000
0.56394100 -0.20834500 3.80329394 2.000000
0.56672800 -0.20482200 3.79299307 2.000000
0.59194100 -0.21936800 3.82469511 2.000000
0.56815302 -0.21444400 3.81845903 2.000000
0.73675197 -0.24733099 3.87903595 2.000000
0.75762498 -0.23284200 3.87036610 2.000000
0.73303199 -0.24257800 3.87084508 2.000000
0.70635998 -0.24840701 3.90236807 2.000000
0.72508401 -0.25244200 3.91079593 2.000000
0.71760201 -0.25361899 3.92269397 2.000000
0.70623302 -0.21539301 3.82449389 2.000000
0.74141502 -0.21257700 3.83729911 2.000000
0.76148301 -0.21403000 3.84811807 2.000000
0.75631797 -0.21169800 3.84308410 2.000000
0.69563800 -0.24665600 3.89586711 2.000000
0.69322401 -0.23942199 3.85965300 2.000000
0.67984402 -0.24242300 3.87712407 2.000000
0.81433600 -0.24779800 3.91127205 2.000000
0.76795399 -0.27456200 3.96859407 2.000000
0.77469498 -0.27603099 3.96859694 2.000000
0.81277502 -0.26668999 3.93757701 2.000000
0.80162001 -0.27369300 3.94599795 2.000000
0.76406902 -0.27327001 3.96706009 2.000000
0.78171700 -0.27242801 3.95172405 2.000000
0.69115400 -0.12716199 3.74842501 2.000000
0.66408402 -0.11853200 3.73020196 2.000000
0.68307298 -0.13442300 3.74858499 2.000000
0.68756402 -0.14673100 3.75780010 2.000000
0.65609699 -0.15193801 3.74529004 2.000000
0.57536000 -0.22283800 3.86760402 2.000000
0.60688198 -0.23205400 3.92070699 2.000000
0.58786201 -0.22441700 3.84880090 2.000000
0.59053397 -0.22794600 3.90604711 2.000000
0.71883798 -0.16189000 3.78417301 2.000000
0.72013098 -0.15163600 3.77756691 2.000000
0.71515399 -0.15961100 3.78062391 2.000000
0.70468998 -0.16250101 3.77719498 2.000000
0.65500498 -0.16474400 3.75275803 2.000000
0.62674201 -0.23557200 3.88800597 2.000000
0.61969697 -0.23316500 3.86976504 2.000000
0.62658101 -0.23500501 3.87052011 2.000000
0.63800198 -0.23907000 3.90548205 2.000000
0.88707799 0.03915100 3.96297002 2.000000
0.88306201 0.03531300 3.95232511 2.000000
0.69348001 -0.08070400 4.19760799 2.000000
0.69268602 -0.08944300 4.19051409 2.000000
0.79105401 0.13478400 4.08589792 2.000000
0.77074200 0.09046000 4.14533901 2.000000
0.74524701 0.08091000 4.15849209 2.000000
0.77774298 0.08256400 4.15247488 2.000000
0.78249002 0.12477100 4.10274315 2.000000
0.78509599 0.12001800 4.10827923 2.000000
0.75270599 0.10179100 4.13485479 2.000000
0.76033503 0.11981400 4.11083984 2.000000
0.74846298 0.11480300 4.11875486 2.000000
0.84233201 0.11224800 4.03583813 2.000000
0.83106202 0.12746900 4.02489090 2.000000
0.69425601 0.01719000 4.19091511 2.000000
0.82349497 0.13534400 3.98766303 2.000000
0.82365000 0.13495900 3.98694396 2.000000
0.67992097 -0.01433400 4.18494177 2.000000
0.68286800 -0.01582900 4.18707705 2.000000
0.81822997 0.14449599 4.00569487 2.000000
0.70798802 0.01746700 4.20180988 2.000000
0.81481600 0.14427300 4.03217077 2.000000
0.81499898 0.14834200 4.00360203 2.000000
0.70735800 0.04891000 4.18338108 2.000000
0.70614302 0.04986600 4.18208885 2.000000
0.89578301 -0.08288100 3.88498902 2.000000
0.89406902 -0.07903100 3.88470602 2.000000
0.68694401 -0.19002600 4.11415100 2.000000
0.68975300 -0.19428200 4.11644506 2.000000
0.88371903 -0.03631200 3.88706398 2.000000
0.88978899 -0.04846600 3.89334893 2.000000
0.67735600 -0.14755300 4.12576008 2.000000
0.87588501 0.03783400 3.93294597 2.000000
0.88147599 0.03016000 3.94155312 2.000000
0.87364203 0.03981300 3.92718291 2.000000
0.68587297 -0.07339300 4.17334986 2.000000
0.86274397 0.07432000 3.95602798 2.000000
0.86217201 0.07502700 3.95545292 2.000000
0.66602099 -0.05162800 4.16545582 2.000000
0.82536799 0.12275000 4.07378292 2.000000
0.74605399 0.05491500 4.18160009 2.000000
0.72909302 0.04014100 4.20039415 2.000000
0.80346400 0.14857100 4.05008793 2.000000
0.80455601 0.12593400 4.08725786 2.000000
0.80255401 0.12619400 4.08885098 2.000000
0.73315197 0.08692700 4.15307713 2.000000
0.87302297 -0.18982901 3.87947989 2.000000
0.72886997 -0.27237600 4.04676390 2.000000
0.71642900 -0.26421899 4.04104519 2.000000
0.84945399 -0.18174200 3.86417699 2.000000
0.68918300 -0.23438700 4.06320000 2.000000
0.69235301 -0.23854500 4.05989695 2.000000
0.89311099 -0.01656300 3.92134190 2.000000
0.88552803 -0.01015100 3.90780807 2.000000
0.88631898 -0.00105200 3.91920590 2.000000
0.68237197 -0.11287200 4.15167522 2.000000
0.68607497 -0.12855700 4.14783478 2.000000
0.86821598 0.04271600 3.91116500 2.000000
0.87297201 0.01877300 3.90201902 2.000000
0.67007798 -0.10146300 4.14557791 2.000000
0.85470402 0.09065800 3.97503304 2.000000
0.85218698 0.09345200 3.97089911 2.000000
0.84739000 0.10075700 3.97347212 2.000000
0.69054300 -0.05068200 4.18442202 2.000000
0.83742702 0.11364200 3.97302008 2.000000
0.84242398 0.10837900 3.98006105 2.000000
0.66167599 -0.02147100 4.17032719 2.000000
0.87410301 -0.14022399 3.86119509 2.000000
0.69416302 -0.21930601 4.10134792 2.000000
0.69366699 -0.21147600 4.11106110 2.000000
0.87506503 -0.09377100 3.86282301 2.000000
0.88607401 -0.10038800 3.87122607 2.000000
0.67895699 -0.18914200 4.09884119 2.000000
0.68572599 -0.20333201 4.09980822 2.000000
0.79510701 -0.20567501 3.85589099 2.000000
0.78745198 -0.19921599 3.84769392 2.000000
0.80785602 -0.20145200 3.85754490 2.000000
0.70130098 -0.25222701 3.94729209 2.000000
0.70266002 -0.25594899 3.99466610 2.000000
0.68231702 -0.24715400 3.97561312 2.000000
0.80444902 -0.20844600 3.86238289 2.000000
0.79532403 -0.22429501 3.87517095 2.000000
0.80680501 -0.20702600 3.86196399 2.000000
0.73074400 -0.26425999 3.96217608 2.000000
0.71488798 -0.25708100 3.94438195 2.000000
0.71136397 -0.25948101 3.99890590 2.000000
0.75953197 -0.24285400 3.88404489 2.000000
0.77670300 -0.23689499 3.88291693 2.000000
0.76580602 -0.24426900 3.88812709 2.000000
0.74374402 -0.26830801 3.96271110 2.000000
0.73732799 -0.25925699 3.93063688 2.000000
0.77665401 -0.24802400 3.89686608 2.000000
0.76982200 -0.25764301 3.91204906 2.000000
0.80172300 -0.24763900 3.90817904 2.000000
0.75322199 -0.25838399 3.91528702 2.000000
0.72864097 -0.27299100 4.06589985 2.000000
0.69436198 -0.16140901 4.14849806 2.000000
0.89768600 -0.02407400 3.92441392 2.000000
0.68898600 -0.13928300 4.14657879 2.000000
0.69414002 -0.13491800 4.16381598 2.000000
0.70412099 -0.22636800 4.11760616 2.000000
0.33445200 0.26183200 3.89504695 1.000000
0.32323200 0.24294600 3.92145205 1.000000
0.34912601 0.25108999 3.90601110 1.000000
0.34631199 0.21692100 3.95988202 1.000000
0.35271001 0.21934400 3.95255303 1.000000
0.31107199 0.02152300 3.60937405 1.000000
0.31546199 0.02322300 3.60992002 1.000000
0.33926401 0.04454200 3.61355710 1.000000
0.25076300 -0.09079600 3.83851290 1.000000
0.23786600 -0.08492700 3.83033490 1.000000
0.23807301 -0.08076500 3.83967090 1.000000
0.35436800 0.03859600 3.61545610 1.000000
0.24961101 -0.10704800 3.79809690 1.000000
0.25624099 -0.10598100 3.80876207 1.000000
0.31461900 -0.04885800 3.61964512 1.000000
0.27594599 -0.12573899 3.69885111 1.000000
0.28303701 -0.07291300 3.61750793 1.000000
0.29339200 -0.09544400 3.62551498 1.000000
0.25946400 -0.12469100 3.68569708 1.000000
0.41598600 0.17521200 4.01506376 1.000000
0.43145299 0.25571299 3.87420988 1.000000
0.41666299 0.17106099 4.02279282 1.000000
0.35359901 0.15299501 4.09244490 1.000000
0.34949100 0.12909000 4.07415390 1.000000
0.25104001 0.22705600 3.94186711 1.000000
0.29477799 0.30233601 3.79570198 1.000000
0.29644999 0.30385700 3.80001807 1.000000
0.24152000 0.20609701 3.95710206 1.000000
0.25267500 0.20500299 3.97240090 1.000000
0.17793700 -0.10166200 3.72234106 1.000000
0.13970500 0.20141201 3.77541089 1.000000
0.13397400 0.20112699 3.77961802 1.000000
0.14599700 0.21148200 3.78883290 1.000000
0.11703200 0.13925400 3.84516191 1.000000
0.10489000 0.13790800 3.83938599 1.000000
0.10375300 0.12285400 3.83576012 1.000000
0.16061901 0.20917800 3.76331592 1.000000
0.16330101 0.21478000 3.77169490 1.000000
0.13505100 0.15150800 3.86101007 1.000000
0.14468500 0.14460000 3.87206197 1.000000
0.15481600 0.14273500 3.68578506 1.000000
0.15435500 0.15650500 3.70089507 1.000000
0.08257600 0.05256600 3.80183506 1.000000
0.12017300 0.07574400 3.82961202 1.000000
0.08331800 0.04186800 3.79817891 1.000000
0.50624698 0.02421700 3.66655493 1.000000
0.48696101 0.04228800 3.66514897 1.000000
0.49738801 0.03320900 3.66602898 1.000000
0.38975501 -0.12910700 3.90896893 1.000000
0.37059599 -0.11198500 3.91359591 1.000000
0.38894400 -0.12858699 3.90870595 1.000000
0.46621501 -0.00447000 3.64742708 1.000000
0.49715501 0.00194400 3.65842509 1.000000
0.50570202 0.00138000 3.66089010 1.000000
0.52394599 0.00165800 3.66651702 1.000000
0.37305599 -0.12900101 3.88235807 1.000000
0.38210800 -0.13446300 3.88472295 1.000000
0.37553200 -0.13158201 3.88120604 1.000000
0.36105099 -0.13476899 3.85769701 1.000000
0.48886099 -0.08923100 3.66760206 1.000000
0.46748301 -0.07886300 3.65994692 1.000000
0.48551199 -0.07829600 3.66278410 1.000000
0.45410401 -0.07757200 3.65717602 1.000000
0.45589700 -0.08086800 3.65876102 1.000000
0.42488399 -0.17455100 3.77216291 1.000000
0.39021701 -0.16138300 3.77198601 1.000000
0.43550399 -0.17981300 3.78560996 1.000000
0.40620199 -0.16912800 3.79032707 1.000000
0.43812299 -0.10203100 3.66635990 1.000000
0.42407700 -0.08180300 3.65539289 1.000000
0.44397399 -0.10003100 3.66567898 1.000000
0.44268900 -0.09218200 3.66165590 1.000000
0.40961200 -0.16682801 3.75874901 1.000000
0.41986999 -0.17155300 3.76123190 1.000000
0.41064000 -0.16481300 3.74929094 1.000000
0.34845701 0.32174599 3.77897596 1.000000
0.28278100 0.17526899 4.03193283 1.000000
0.35744700 0.31661099 3.76981497 1.000000
0.27737701 0.16515100 4.02838993 1.000000
0.27120700 0.09278200 3.61488008 1.000000
0.26192701 0.10229200 3.62074399 1.000000
0.17100701 -0.03146100 3.82769895 1.000000
0.26771599 0.10960400 3.62268996 1.000000
0.17123200 0.00213100 3.85531998 1.000000
0.11892100 -0.03622500 3.78182697 1.000000
0.11102600 -0.03860500 3.77900195 1.000000
0.11632600 -0.04491600 3.77382207 1.000000
0.45796201 0.22891800 3.78290391 1.000000
0.36212200 0.05191500 4.00745392 1.000000
0.45826700 0.22757900 3.79206491 1.000000
0.25581300 -0.11009900 3.64231205 1.000000
0.25772101 -0.12578800 3.64958811 1.000000
0.10475600 0.17987201 3.81159496 1.000000
0.10595900 0.17888300 3.81484604 1.000000
0.10047900 0.17568000 3.81279802 1.000000
0.13497500 0.20411000 3.79808307 1.000000
0.11355200 0.19153699 3.79495502 1.000000
0.09493700 0.15118800 3.83668995 1.000000
0.13251700 0.18576400 3.83570004 1.000000
0.11619800 0.17786001 3.82702303 1.000000
0.11205400 0.17237300 3.82927704 1.000000
0.36646000 -0.09627400 3.65703893 1.000000
0.35131401 -0.13281700 3.70402098 1.000000
0.36246201 -0.12167900 3.67603207 1.000000
0.34920299 -0.12953600 3.69677997 1.000000
0.34781399 0.21333000 3.67351699 1.000000
0.32872501 0.22476500 3.68057799 1.000000
0.34529501 0.23694700 3.69174004 1.000000
0.22903401 0.07982100 3.96992302 1.000000
0.23810101 0.09891100 3.98645091 1.000000
0.22888300 0.07880300 3.96932507 1.000000
0.37692299 0.22877599 3.68793511 1.000000
0.35591501 0.23080200 3.68791699 1.000000
0.34537300 0.25337601 3.70431590 1.000000
0.33482099 0.25333101 3.70349789 1.000000
0.27196500 0.07657100 4.00800085 1.000000
0.25155100 0.05266800 3.97681403 1.000000
0.25779599 0.05163200 3.98229694 1.000000
0.20998900 0.13972600 3.65739298 1.000000
0.21023600 0.13595501 3.65239000 1.000000
0.19009900 0.14273800 3.67332292 1.000000
0.15460400 0.05081300 3.85759902 1.000000
0.14055000 0.05084800 3.83960891 1.000000
0.22693600 0.17266400 3.67734003 1.000000
0.23399600 0.19545600 3.68956494 1.000000
0.15144099 0.07726500 3.86601996 1.000000
0.16570100 0.06322300 3.87882710 1.000000
0.18637100 0.14082500 3.67229509 1.000000
0.18959901 0.13471100 3.66254091 1.000000
0.12065900 0.04266100 3.82010293 1.000000
0.10622100 0.04004400 3.81039500 1.000000
0.12386800 0.03846100 3.82069111 1.000000
0.09230900 0.00251000 3.79414701 1.000000
0.09085300 0.01121300 3.79360795 1.000000
0.47071901 0.15413500 3.71785402 1.000000
0.45575300 0.12505800 3.68450809 1.000000
0.34210801 -0.03180600 3.95245409 1.000000
0.32638401 -0.05427500 3.93222904 1.000000
0.45718500 0.14094800 3.69700098 1.000000
0.33157399 -0.03633900 3.94562602 1.000000
0.47875601 0.22214900 3.96550107 1.000000
0.47647399 0.22487301 3.95756102 1.000000
0.50332999 0.22643600 3.96036005 1.000000
0.44477201 0.21766099 3.96576595 1.000000
0.48005301 0.21674900 3.97763300 1.000000
0.49641201 0.23652200 3.92755389 1.000000
0.46739200 0.24021600 3.90613198 1.000000
0.45148200 0.22423400 3.95217800 1.000000
0.46010101 0.23235799 3.92894912 1.000000
0.46896300 0.23741500 3.91564012 1.000000
0.46273801 0.19038200 4.00589418 1.000000
0.44642401 0.18774299 3.99851608 1.000000
0.43191499 0.21333200 3.96446109 1.000000
0.52316499 -0.16189000 3.72122407 1.000000
0.57415700 -0.15020899 3.72225189 1.000000
0.54219800 -0.16488500 3.72948694 1.000000
0.54675102 -0.16317099 3.72885990 1.000000
0.51044899 -0.14752699 3.70557404 1.000000
0.49767101 -0.12936500 3.68799090 1.000000
0.48067600 -0.13264801 3.68677711 1.000000
0.48615000 -0.14691100 3.69954705 1.000000
0.46978301 -0.18347700 3.76147389 1.000000
0.47139901 -0.18098199 3.75219989 1.000000
0.45328701 -0.17924500 3.75537395 1.000000
0.45761800 -0.18007900 3.75603604 1.000000
0.44789201 -0.17946000 3.75880504 1.000000
0.56151199 0.20154800 3.78523493 1.000000
0.53605402 0.20986401 3.79503298 1.000000
0.50774902 0.22094899 3.80955100 1.000000
0.40007001 0.05127500 4.02936602 1.000000
0.51895201 0.21222900 3.79597592 1.000000
0.51079100 0.20883700 3.78889990 1.000000
0.49959999 0.21648200 3.79990602 1.000000
0.40010199 0.04303300 4.03074694 1.000000
0.39925200 0.03160000 4.03153086 1.000000
0.50795799 0.24319699 3.86344194 1.000000
0.50575501 0.24276800 3.85588002 1.000000
0.43346101 0.13762499 4.03721285 1.000000
0.52410901 0.23909700 3.84923291 1.000000
0.54447699 0.23647501 3.85659695 1.000000
0.41931900 0.10052000 4.03879690 1.000000
0.55860299 -0.12057100 3.70215702 1.000000
0.58735198 -0.09497400 3.69666100 1.000000
0.57066298 -0.11505600 3.70261693 1.000000
0.57082498 -0.10828800 3.69907904 1.000000
0.47171500 -0.19337299 3.83878398 1.000000
0.44983301 -0.18706700 3.82855296 1.000000
0.55031198 -0.12542300 3.70222092 1.000000
0.54789001 -0.11496500 3.69617796 1.000000
0.52824801 -0.10821500 3.68661809 1.000000
0.48311600 -0.12240600 3.67965889 1.000000
0.51937598 -0.09212000 3.67570710 1.000000
0.49404201 -0.19476300 3.78959298 1.000000
0.45237800 -0.18656000 3.81510210 1.000000
0.49686599 -0.19599800 3.79592490 1.000000
0.44438800 -0.18175700 3.78163099 1.000000
0.43678901 -0.18034200 3.78724599 1.000000
0.57327700 0.04531000 3.68848801 1.000000
0.53203601 0.02490600 3.67276311 1.000000
0.56689900 0.03222100 3.68433905 1.000000
0.58771300 0.03467200 3.69091892 1.000000
0.59175700 0.04411600 3.69374704 1.000000
0.40324599 -0.13618200 3.91505599 1.000000
0.40410399 -0.14180200 3.90471792 1.000000
0.41576800 -0.14457400 3.91556907 1.000000
0.40016201 -0.12656499 3.93045592 1.000000
0.58771098 0.01801100 3.68880510 1.000000
0.60332602 -0.02270100 3.68922710 1.000000
0.59357798 -0.02156400 3.68614888 1.000000
0.61429799 0.04479300 3.70066404 1.000000
0.60475802 0.00153000 3.69250703 1.000000
0.61594200 0.02422100 3.69882011 1.000000
0.43149900 -0.16375600 3.89495301 1.000000
0.58429301 0.15809600 3.74548197 1.000000
0.54811102 0.13193201 3.71958399 1.000000
0.56021601 0.13053800 3.72103500 1.000000
0.54355299 0.13725300 3.72244596 1.000000
0.38201499 -0.03514400 4.00113010 1.000000
0.40238801 -0.06294700 4.00242376 1.000000
0.39795899 -0.06086800 3.99903107 1.000000
0.58300602 0.12767200 3.72490406 1.000000
0.57730597 0.12428500 3.72109389 1.000000
0.56961203 0.12243900 3.71755791 1.000000
0.60212100 0.15590800 3.74761796 1.000000
0.40302300 -0.08004700 3.98969102 1.000000
0.26556301 -0.01960000 3.60338211 1.000000
0.26969600 0.01625500 3.60084605 1.000000
0.21211000 -0.10549000 3.75423098 1.000000
0.21791600 -0.11558200 3.71154404 1.000000
0.26804599 -0.03409400 3.60562491 1.000000
0.27210000 -0.05050000 3.61029196 1.000000
0.22327200 -0.11747300 3.70735693 1.000000
0.23149300 -0.11784700 3.71263790 1.000000
0.23461699 -0.12057900 3.69497490 1.000000
0.40645701 0.13565101 4.06184816 1.000000
0.45166999 0.24746799 3.83822489 1.000000
0.45467401 0.26046300 3.83638000 1.000000
0.41033599 0.12789500 4.03719091 1.000000
0.29321799 0.30078200 3.79122496 1.000000
0.25105199 0.19347300 3.98229098 1.000000
0.23889001 0.19881800 3.96331000 1.000000
0.31939399 0.30584300 3.76493192 1.000000
0.25022900 0.17565700 3.99573708 1.000000
0.25671199 0.17396501 4.00287294 1.000000
0.12849000 0.17299500 3.73477507 1.000000
0.08607300 0.08089600 3.81197190 1.000000
0.09095600 0.10171500 3.82195306 1.000000
0.40344599 -0.01496000 3.63235903 1.000000
0.38690999 -0.03319900 3.63286090 1.000000
0.32593900 -0.13522901 3.80013108 1.000000
0.32365000 -0.13632201 3.76784992 1.000000
0.31633300 -0.13370200 3.76664805 1.000000
0.41986999 -0.04789200 3.64261508 1.000000
0.42065999 -0.02465700 3.63838696 1.000000
0.33462501 -0.13857600 3.79687905 1.000000
0.35446200 -0.14300799 3.82930803 1.000000
0.34335399 -0.14195099 3.79263210 1.000000
0.52150601 0.23877101 3.91514897 1.000000
0.53977603 0.23933800 3.90918398 1.000000
0.53293401 0.23671000 3.92699504 1.000000
0.48958999 0.24497899 3.87804699 1.000000
0.47394300 0.24361099 3.88943005 1.000000
0.43092901 0.15409601 4.02290106 1.000000
0.42803201 0.14020801 4.03183413 1.000000
0.56657600 -0.06395900 3.68192196 1.000000
0.56906003 -0.06461300 3.68293309 1.000000
0.58244598 -0.08745500 3.69233394 1.000000
0.54340702 -0.06539900 3.67403507 1.000000
0.46177700 -0.18943600 3.84215093 1.000000
0.45233899 -0.18640600 3.83847404 1.000000
0.55826497 -0.02702500 3.67647004 1.000000
0.56205100 -0.04573400 3.67829704 1.000000
0.54833502 -0.01463900 3.67321610 1.000000
0.57236803 -0.01970000 3.68004894 1.000000
0.52824199 -0.05200600 3.66924596 1.000000
0.44301099 -0.18047699 3.84828806 1.000000
0.42724600 -0.16345100 3.88743496 1.000000
0.44545501 -0.17414200 3.88116908 1.000000
0.43182200 -0.16861001 3.87513089 1.000000
0.37085399 0.24202199 3.91142201 1.000000
0.34864700 0.23686799 3.92199111 1.000000
0.38288099 0.22722401 3.92856002 1.000000
0.39897600 0.18872800 3.97620511 1.000000
0.38248399 0.21640600 3.94278908 1.000000
0.38199300 0.24799301 3.90272593 1.000000
0.36427099 0.24447399 3.91070008 1.000000
0.35194799 0.22845399 3.93348503 1.000000
0.29068899 0.08760500 3.61404800 1.000000
0.28506801 0.09069900 3.61441898 1.000000
0.19357900 -0.05332600 3.82993793 1.000000
0.19170401 -0.04476800 3.83949208 1.000000
0.18218400 -0.05112000 3.81868291 1.000000
0.26861501 0.03771900 3.60359502 1.000000
0.19592801 -0.06966700 3.80890799 1.000000
0.18933900 -0.07617900 3.79188204 1.000000
0.39959601 0.09282900 3.63331199 1.000000
0.40320501 0.09613200 3.63505197 1.000000
0.39565399 0.09406400 3.63228202 1.000000
0.27754900 -0.08488600 3.87418294 1.000000
0.27061301 -0.09381700 3.85578203 1.000000
0.40854999 0.09478100 3.63731503 1.000000
0.41211200 0.08654600 3.63759804 1.000000
0.27620500 -0.05771500 3.90881801 1.000000
0.29037201 -0.06104300 3.91424894 1.000000
0.21975200 -0.12456400 3.66790700 1.000000
0.33200601 -0.01492800 3.61843801 1.000000
0.27668601 -0.12481700 3.74793911 1.000000
0.27584100 -0.12521300 3.74162197 1.000000
0.28474599 -0.12588300 3.75950503 1.000000
0.37087399 0.15360500 4.09355116 1.000000
0.44929901 0.27569300 3.77747011 1.000000
0.35356200 0.10430300 4.05899000 1.000000
0.45440599 0.27416199 3.78721690 1.000000
0.35635599 0.10090800 4.05689383 1.000000
0.31332201 -0.12310600 3.69140601 1.000000
0.32412100 -0.08687000 3.63857508 1.000000
0.31195500 -0.11254200 3.66827798 1.000000
0.42796701 0.18923900 3.68835998 1.000000
0.43370700 0.19054000 3.69544601 1.000000
0.30127001 0.02264400 3.99241710 1.000000
0.44387501 0.21326400 3.72229409 1.000000
0.43967599 0.21933401 3.72125292 1.000000
0.31433100 0.01019100 3.98499990 1.000000
0.31289700 0.20009001 3.66547608 1.000000
0.29524499 0.18582401 3.65965700 1.000000
0.20860200 0.04999900 3.93519211 1.000000
0.19853900 0.05658100 3.92726207 1.000000
0.30093899 0.15428901 3.63934302 1.000000
0.30013999 0.16445300 3.64578700 1.000000
0.18311000 0.02222700 3.88655901 1.000000
0.19487301 0.03330300 3.90860009 1.000000
0.20240800 -0.11404800 3.70274091 1.000000
0.20411700 -0.11479400 3.70015001 1.000000
0.25194901 0.02433800 3.60057902 1.000000
0.18207900 -0.09192300 3.75450706 1.000000
0.18543901 -0.10387100 3.72769904 1.000000
0.57456100 0.19907901 3.78526592 1.000000
0.58266199 0.21165501 3.81314397 1.000000
0.60959101 0.19714300 3.79708791 1.000000
0.62953699 -0.00185400 3.70043397 1.000000
0.63146001 0.13460299 3.74587989 1.000000
0.62017000 0.15398900 3.75342798 1.000000
0.62866700 0.13789400 3.74679494 1.000000
0.54586202 0.24038200 3.90237689 1.000000
0.15977000 -0.09549400 3.72640800 1.000000
0.15711699 -0.08573500 3.74327207 1.000000
0.16506700 -0.09500400 3.72707295 1.000000
0.14519100 -0.08506200 3.74482799 1.000000
0.23273900 0.12887201 3.63885999 1.000000
0.24159700 0.11919900 3.63108301 1.000000
0.13854700 0.02976300 3.83101511 1.000000
0.13222900 0.02762600 3.82294393 1.000000
0.21994600 0.09654800 3.62001610 1.000000
0.23690300 0.10920800 3.62552404 1.000000
0.12473700 -0.02697200 3.79249406 1.000000
0.13926500 0.01590200 3.82526588 1.000000
0.13555500 -0.01561200 3.80837202 1.000000
0.33547699 0.17297700 3.64918494 1.000000
0.22236200 -0.00160500 3.91564608 1.000000
0.21310601 0.02326500 3.92419505 1.000000
0.36029100 0.17794301 3.65449691 1.000000
0.34593600 0.16552199 3.64636397 1.000000
0.34110901 0.17734601 3.65193391 1.000000
0.23346899 0.03174200 3.94994307 1.000000
0.24140400 0.02172000 3.95057392 1.000000
0.49279499 0.19743700 3.76727295 1.000000
0.47315100 0.18182500 3.74660897 1.000000
0.51508999 0.16074200 3.73379207 1.000000
0.50392997 0.17245100 3.74352598 1.000000
0.49581000 0.17050500 3.73962688 1.000000
0.37056601 -0.02069800 3.98941708 1.000000
0.53858203 0.19000100 3.76799607 1.000000
0.53471601 0.18517999 3.76245499 1.000000
0.52053201 0.18565400 3.76044106 1.000000
0.54094601 0.18744899 3.76583791 1.000000
0.38595799 -0.00782600 4.01369619 1.000000
0.54636198 0.16283999 3.74228811 1.000000
0.54352897 0.16115899 3.74006891 1.000000
0.58609700 0.17300799 3.76016498 1.000000
0.56451702 0.17035700 3.75329399 1.000000
0.39193699 -0.01419500 4.02056313 1.000000
0.41009200 0.14764901 3.65436292 1.000000
0.40843901 0.13094500 3.64578104 1.000000
0.27407300 -0.03594800 3.93016505 1.000000
0.27809700 -0.04979300 3.91959906 1.000000
0.42710799 0.17606699 3.68060708 1.000000
0.42731199 0.18026200 3.68300009 1.000000
0.29980099 -0.01060000 3.96441793 1.000000
0.29698101 -0.01894700 3.95632005 1.000000
0.29195601 0.24693599 3.70216703 1.000000
0.30878201 0.25466099 3.70556307 1.000000
0.22238600 0.11278100 3.97585511 1.000000
0.20761900 0.08575100 3.94914508 1.000000
0.31261200 0.21601900 3.67696691 1.000000
0.31488901 0.23975401 3.69383597 1.000000
0.31670901 0.20713200 3.66977692 1.000000
0.21887000 0.05416500 3.94827604 1.000000
0.21566799 0.05022100 3.94315505 1.000000
0.22324499 0.10060600 3.97260094 1.000000
0.61516500 0.17047100 3.76700211 1.000000
0.60370201 0.16417700 3.75533700 1.000000
0.61397898 0.18756400 3.78648806 1.000000
0.58144701 0.19221900 3.77963996 1.000000
0.29594100 0.25517300 3.70808291 1.000000
0.27037001 0.26641700 3.72404003 1.000000
0.20851800 0.12110600 3.96263599 1.000000
0.28574899 0.28603801 3.74250102 1.000000
0.29725701 0.28141001 3.73411989 1.000000
0.29679599 0.27933100 3.73176908 1.000000
0.22997800 0.14748000 3.98547006 1.000000
0.22880700 0.15364000 3.98398805 1.000000
0.37655801 0.27355400 3.72443008 1.000000
0.36254701 0.28603399 3.73467898 1.000000
0.35388401 0.26694700 3.71581292 1.000000
0.33905399 0.27111199 3.71815801 1.000000
0.26473701 0.10430100 4.01139212 1.000000
0.25538599 0.11919600 4.00887394 1.000000
0.27649799 0.07345500 4.01064014 1.000000
0.39414400 0.28290600 3.73629808 1.000000
0.37624699 0.29269600 3.74241900 1.000000
0.28807101 0.08524500 4.02365017 1.000000
0.48744401 0.22976200 3.82567692 1.000000
0.49465400 0.23469400 3.83309293 1.000000
0.41082799 0.09487500 4.03055620 1.000000
0.46187299 0.23031200 3.83169293 1.000000
0.39099401 0.08136300 4.00717115 1.000000
0.54007500 0.23480600 3.84631801 1.000000
0.55765098 0.22920300 3.84137988 1.000000
0.51236397 0.22462399 3.81665111 1.000000
0.52734900 0.22386201 3.81943297 1.000000
0.42681500 0.24975599 3.72659111 1.000000
0.43584701 0.27120900 3.75432396 1.000000
0.32765901 0.04260400 4.01317883 1.000000
0.44466099 0.25348499 3.75254297 1.000000
0.34648001 0.06578400 4.03269482 1.000000
0.35299200 0.07431700 4.03975487 1.000000
0.57363200 0.22428900 3.83691502 1.000000
0.35076800 0.14248000 3.63573003 1.000000
0.35404199 0.10117400 3.62383199 1.000000
0.36407399 0.13609999 3.63603902 1.000000
0.24320599 -0.04090900 3.89908004 1.000000
0.23812400 -0.04137900 3.89350104 1.000000
0.37233299 0.09644800 3.62637496 1.000000
0.38598901 0.09393100 3.62930894 1.000000
0.36783201 0.08169500 3.62224603 1.000000
0.25262800 -0.07763500 3.86154890 1.000000
0.25084499 -0.06599800 3.87566090 1.000000
0.25406301 -0.07871700 3.86135411 1.000000
0.50063503 0.10189700 3.69032407 1.000000
0.52368897 0.09697600 3.69284511 1.000000
0.53084397 0.09644500 3.69408011 1.000000
0.37381801 -0.08895200 3.94212389 1.000000
0.37606499 -0.08732700 3.94693995 1.000000
0.50238800 0.06513300 3.67430997 1.000000
0.49671400 0.08540200 3.68218803 1.000000
0.48207799 0.07571400 3.67503595 1.000000
0.35412100 -0.06574100 3.93802094 1.000000
0.35139701 -0.09607700 3.90442705 1.000000
0.37148601 -0.09302900 3.93477297 1.000000
0.17233001 -0.07913000 3.76819205 1.000000
0.25028300 0.06102500 3.60860300 1.000000
0.24615300 0.03958900 3.60359311 1.000000
0.17277600 -0.06182400 3.79401708 1.000000
0.62005401 0.10515400 3.72423911 1.000000
0.61722898 0.06951300 3.70999098 1.000000
0.55937898 0.10474400 3.70484495 1.000000
0.61012501 0.09486600 3.71723604 1.000000
0.59060800 0.05450400 3.69556499 1.000000
0.59326297 0.06556700 3.70082092 1.000000
0.59462798 0.06211200 3.69991708 1.000000
0.39763200 -0.11976700 3.94070292 1.000000
0.40426999 -0.12004900 3.94767404 1.000000
0.41652301 -0.11800700 3.96342492 1.000000
0.27653599 0.11550000 3.62379694 1.000000
0.19217300 -0.00865400 3.87639999 1.000000
0.17868200 -0.00452700 3.86095309 1.000000
0.31070799 0.12517899 3.62732196 1.000000
0.31143501 0.11319200 3.62322211 1.000000
0.19089399 -0.03676900 3.84742308 1.000000
0.19483000 -0.03274700 3.85565901 1.000000
0.35644999 0.03495100 3.61703992 1.000000
0.35325700 0.00316000 3.61940289 1.000000
0.27223599 -0.11380400 3.80162001 1.000000
0.38121200 0.02968200 3.62353897 1.000000
0.37909201 0.04945700 3.61988997 1.000000
0.28345701 -0.11136400 3.82715702 1.000000
0.28060299 -0.10711400 3.83764410 1.000000
0.62031502 0.05698600 3.70654297 1.000000
0.63618898 0.05743500 3.71345711 1.000000
0.23954999 0.08441200 3.61752510 1.000000
0.13973500 -0.02038600 3.80916405 1.000000
0.15083000 -0.02671600 3.81045389 1.000000
0.13161001 -0.03152400 3.79380703 1.000000
0.12766100 -0.05588000 3.77082491 1.000000
0.12875099 -0.06540300 3.76372910 1.000000
0.13602200 -0.05374500 3.77731609 1.000000
0.31834501 0.27475700 3.88304496 1.000000
0.30973500 0.24206699 3.92912102 1.000000
0.31686199 0.26387000 3.89527392 1.000000
0.30860299 0.24702100 3.91984892 1.000000
0.29539099 0.05865800 3.60877895 1.000000
0.29077199 0.04248700 3.60564995 1.000000
0.20428500 -0.06504500 3.82495999 1.000000
0.20203000 -0.08786300 3.78689790 1.000000
0.21056800 -0.05914000 3.84218097 1.000000
0.29927599 0.03426800 3.60688710 1.000000
0.29478601 0.02546900 3.60603809 1.000000
0.21043400 -0.09224600 3.78956389 1.000000
0.23041700 -0.08103700 3.82943010 1.000000
0.21925300 -0.10289800 3.77348900 1.000000
0.42963400 0.30951101 3.78341889 1.000000
0.33841401 0.11270700 4.06201982 1.000000
0.42414099 0.30258700 3.76915503 1.000000
0.41567200 0.30359599 3.76357889 1.000000
0.31358099 0.10152200 4.04752302 1.000000
0.31244799 -0.10684700 3.65673304 1.000000
0.28704500 -0.12473400 3.67437506 1.000000
0.30863300 -0.10787000 3.65817904 1.000000
0.30534899 -0.11146700 3.66083288 1.000000
0.40965101 0.24836700 3.71493697 1.000000
0.41766101 0.21161500 3.69238210 1.000000
0.30194199 0.04947600 4.01163101 1.000000
0.28551200 0.05808100 4.00738382 1.000000
0.39114100 0.22989599 3.69324493 1.000000
0.38994801 0.20868599 3.67860699 1.000000
0.27793500 0.06232200 4.00548315 1.000000
0.27167600 0.05367900 3.99563599 1.000000
0.28479001 0.01520800 3.97924805 1.000000
0.30368501 -0.03977900 3.61594200 1.000000
0.25787300 -0.12212500 3.71974707 1.000000
0.26734900 -0.12392500 3.73100805 1.000000
0.31395200 -0.01584000 3.61474109 1.000000
0.23940800 -0.11218300 3.76733708 1.000000
0.37844500 0.19792999 3.66809011 1.000000
0.40395799 0.14435300 3.64901495 1.000000
0.26138401 -0.00870500 3.94281602 1.000000
0.26446199 0.01125300 3.96156096 1.000000
0.25944901 0.00645200 3.95371699 1.000000
0.37275800 0.18737601 3.66158295 1.000000
0.39464000 0.14228100 3.64488602 1.000000
0.36642301 0.18010600 3.65670800 1.000000
0.37706900 0.17643100 3.65731001 1.000000
0.24848300 0.00150700 3.94139600 1.000000
0.24155600 -0.01360100 3.92389989 1.000000
0.25544801 -0.02180400 3.92768407 1.000000
0.41511601 0.28687999 3.74931502 1.000000
0.32217699 0.08012400 4.03915691 1.000000
0.40526301 0.26251099 3.72355199 1.000000
0.40653500 0.27453801 3.73363900 1.000000
0.30437899 0.06331200 4.02114391 1.000000
0.30055699 0.07567500 4.02616692 1.000000
0.32875699 0.11816700 3.62585402 1.000000
0.32939500 0.12493500 3.62822390 1.000000
0.21172801 -0.01593100 3.89229608 1.000000
0.20531701 -0.00290200 3.89774990 1.000000
0.34067199 0.12529799 3.62925291 1.000000
0.23010500 -0.04117400 3.88578296 1.000000
0.23146001 -0.05803700 3.86703610 1.000000
0.34227201 0.32603699 3.79380488 1.000000
0.27725500 0.17711100 4.02429008 1.000000
0.33304501 0.31399101 3.78090405 1.000000
0.26804301 0.17741200 4.01065111 1.000000
0.32330599 0.31501701 3.82388306 1.000000
0.30808499 0.31083801 3.80555391 1.000000
0.27522001 0.22761101 3.96519995 1.000000
0.28045699 0.22630800 3.96864104 1.000000
0.39103001 0.30698499 3.75860405 1.000000
0.30360901 0.11904100 4.04756689 1.000000
0.39189601 0.31667101 3.76781106 1.000000
0.38922599 0.31374300 3.76455903 1.000000
0.32272401 0.13440999 4.06955290 1.000000
0.32503301 0.16025101 4.08253002 1.000000
0.31105500 0.16143300 4.06802607 1.000000
0.16875000 0.17016999 3.70435095 1.000000
0.16288500 0.16139600 3.70149589 1.000000
0.12994801 0.08232000 3.83899307 1.000000
0.13034400 0.09412600 3.84662199 1.000000
0.19631000 0.17649800 3.69431710 1.000000
0.22727001 0.20336799 3.69793701 1.000000
0.19697000 0.15512100 3.67977810 1.000000
0.14930500 0.08753500 3.86829996 1.000000
0.14999300 0.08303100 3.86696792 1.000000
0.11026900 0.16912700 3.73958898 1.000000
0.09793800 0.16929400 3.75017190 1.000000
0.06384000 0.11946300 3.81446409 1.000000
0.07284300 0.10511100 3.81410503 1.000000
0.06237200 0.10414700 3.80850911 1.000000
0.14979900 0.19408201 3.74577808 1.000000
0.14106201 0.18457900 3.73741388 1.000000
0.15983200 0.20073800 3.74586010 1.000000
0.13441999 0.12549099 3.86496806 1.000000
0.14770700 0.11964100 3.88182402 1.000000
0.18078300 0.19357599 3.71432900 1.000000
0.17288999 0.18449000 3.71244311 1.000000
0.11562700 0.11323000 3.84113097 1.000000
0.11592900 0.11533800 3.84290004 1.000000
0.20917900 0.25658500 3.80588889 1.000000
0.20627201 0.25417900 3.80427003 1.000000
0.16587199 0.22338600 3.78835893 1.000000
0.16213900 0.18442500 3.87722898 1.000000
0.17744701 0.18731099 3.88922811 1.000000
0.20807700 0.24808700 3.78007698 1.000000
0.21130900 0.25228599 3.78590107 1.000000
0.19336601 0.20351000 3.89793301 1.000000
0.18854800 0.18960500 3.90318894 1.000000
0.14745700 0.20744300 3.81789589 1.000000
0.14444500 0.20321301 3.82574105 1.000000
0.16621700 0.21425401 3.84380507 1.000000
0.14690199 0.18809500 3.85123396 1.000000
0.13885000 0.18847799 3.83954096 1.000000
0.17549901 0.23053899 3.81348395 1.000000
0.15709101 0.21873200 3.80231595 1.000000
0.17506100 0.22835200 3.82202792 1.000000
0.20517300 0.24869999 3.83551407 1.000000
0.19014700 0.20748299 3.88951802 1.000000
0.19775400 0.23097600 3.86672401 1.000000
0.18945099 0.21379600 3.87907505 1.000000
0.22129500 0.25449499 3.76702309 1.000000
0.21547499 0.24914500 3.76496792 1.000000
0.20370901 0.22694400 3.73737097 1.000000
0.17673799 0.15532701 3.90811896 1.000000
0.20898600 0.22356100 3.72106791 1.000000
0.22877100 0.26027101 3.76738405 1.000000
0.22103000 0.23770700 3.73053408 1.000000
0.18329300 0.13818900 3.93565297 1.000000
0.18100999 0.14929099 3.92146611 1.000000
0.18953399 0.14295900 3.94489908 1.000000
0.27011499 0.25301099 3.71262288 1.000000
0.23873800 0.20213100 3.69189000 1.000000
0.17846400 0.10318200 3.91731596 1.000000
0.17982000 0.10134800 3.91837192 1.000000
0.23424900 0.22698300 3.71117806 1.000000
0.24771699 0.24469399 3.71742606 1.000000
0.23227499 0.21732400 3.70535493 1.000000
0.16677099 0.11457900 3.90643597 1.000000
0.18223999 0.12564901 3.93156695 1.000000
0.25898999 0.17748100 3.66588593 1.000000
0.25424400 0.19233300 3.67832708 1.000000
0.17699900 0.07269700 3.90323901 1.000000
0.28141800 0.22097200 3.68551207 1.000000
0.27359000 0.20485100 3.67836690 1.000000
0.19215100 0.09043700 3.93176389 1.000000
0.17654200 0.08997300 3.90993094 1.000000
0.26357701 0.12804800 3.63171506 1.000000
0.16956700 0.03337500 3.86968589 1.000000
0.27560201 0.17146100 3.65500903 1.000000
0.27458000 0.16945700 3.65408611 1.000000
0.17546301 0.02742900 3.87686992 1.000000
0.18219601 0.04874100 3.89926410 1.000000
0.24543600 0.27528200 3.79840803 1.000000
0.24856900 0.27879101 3.80828691 1.000000
0.20923200 0.19862400 3.92111206 1.000000
0.26406100 0.28429601 3.78906894 1.000000
0.26193699 0.28168201 3.78048110 1.000000
0.20831400 0.18710700 3.93372202 1.000000
0.23131600 0.20934901 3.94067192 1.000000
0.22264700 0.25742000 3.84147000 1.000000
0.22307999 0.25885099 3.83691311 1.000000
0.21093699 0.22490799 3.89100099 1.000000
0.21900100 0.24751499 3.86847091 1.000000
0.24038300 0.25943801 3.87265110 1.000000
0.24595200 0.27444899 3.83006310 1.000000
0.23691900 0.27195600 3.81930709 1.000000
0.23861600 0.25000200 3.88847494 1.000000
0.20634900 0.21266800 3.90516210 1.000000
0.26378500 0.27452299 3.74315810 1.000000
0.25432599 0.27585801 3.77280903 1.000000
0.26066101 0.27879700 3.77034903 1.000000
0.20417900 0.17300799 3.94058895 1.000000
0.21001101 0.17533700 3.94631910 1.000000
0.29120901 0.29254699 3.75340891 1.000000
0.20581301 0.16098200 3.95268607 1.000000
0.22181000 0.16592300 3.97213292 1.000000
0.31693900 0.27642900 3.72359610 1.000000
0.31579801 0.29435000 3.74728489 1.000000
0.24278399 0.15809201 3.99585700 1.000000
0.24109800 0.13657300 3.99592400 1.000000
0.34793299 0.29422101 3.74339199 1.000000
0.35633901 0.30484799 3.75659609 1.000000
0.27533901 0.14675599 4.02564383 1.000000
0.26915500 0.15388100 4.01929998 1.000000
0.27301300 0.13665400 4.02456713 1.000000
0.45308501 0.02272500 3.64719510 1.000000
0.47060600 0.05046900 3.66192603 1.000000
0.33787599 -0.11827100 3.86475801 1.000000
0.45032600 0.00183800 3.64316201 1.000000
0.42425701 0.00689200 3.63598895 1.000000
0.42739099 0.03150800 3.63979006 1.000000
0.32119101 -0.11337300 3.85709310 1.000000
0.32233500 -0.12278100 3.83804393 1.000000
0.36544099 -0.09406800 3.65551996 1.000000
0.38220900 -0.09748900 3.65940809 1.000000
0.36523101 -0.14425100 3.73752594 1.000000
0.35956699 -0.13855299 3.71713591 1.000000
0.37047401 -0.05799800 3.63716793 1.000000
0.37741101 -0.06051900 3.63934803 1.000000
0.34048900 -0.14007001 3.74811602 1.000000
0.33754900 -0.13794100 3.74149704 1.000000
0.46451300 0.20158900 3.76627111 1.000000
0.37706500 0.03457700 4.00487804 1.000000
0.49684599 0.21400499 3.79534197 1.000000
0.38720301 0.06212300 4.01070976 1.000000
0.42158401 -0.13248000 3.68500400 1.000000
0.42180601 -0.13011700 3.68347692 1.000000
0.41719899 -0.12927100 3.68265891 1.000000
0.37734601 -0.13686600 3.69776797 1.000000
0.38926300 -0.14056000 3.69746494 1.000000
0.37645400 -0.14373600 3.72089005 1.000000
0.44220501 -0.14025500 3.69092488 1.000000
0.46155000 -0.12434200 3.67995000 1.000000
0.46325999 -0.14431401 3.69390988 1.000000
0.39991799 -0.15605800 3.73344898 1.000000
0.43034801 -0.17285401 3.75171494 1.000000
0.44635999 -0.17004301 3.73019195 1.000000
0.53185898 0.14261401 3.72381496 1.000000
0.50052202 0.12650400 3.70518303 1.000000
0.50461698 0.11666700 3.69899702 1.000000
0.52316600 0.12900700 3.71204996 1.000000
0.38398299 -0.06541400 3.97838902 1.000000
0.36743701 -0.05467100 3.96571302 1.000000
0.37674499 -0.03817100 3.99206805 1.000000
0.50081098 0.14705400 3.72064090 1.000000
0.49725899 0.14225499 3.71634412 1.000000
0.35798201 -0.03292300 3.96062493 1.000000
0.36662501 -0.02681500 3.97961593 1.000000
0.43268400 -0.06220600 3.64781809 1.000000
0.48723301 -0.04392100 3.65625501 1.000000
0.43303800 -0.05881900 3.64737511 1.000000
0.48967901 -0.04432800 3.65682006 1.000000
0.48679200 -0.06048800 3.65868807 1.000000
0.39676499 -0.16563299 3.80029297 1.000000
0.39924401 -0.16548800 3.81969500 1.000000
0.36926800 -0.15141700 3.81203294 1.000000
0.36323100 -0.15028401 3.78608799 1.000000
0.39710200 -0.16607299 3.79633498 1.000000
0.50864202 -0.02100800 3.66161489 1.000000
0.49607801 -0.03001900 3.65800691 1.000000
0.51756400 -0.03699000 3.66528511 1.000000
0.48808101 -0.01761800 3.65481305 1.000000
0.46572399 -0.01232500 3.64733696 1.000000
0.39592701 -0.15448301 3.86261392 1.000000
0.37384999 -0.15028299 3.84009004 1.000000
0.39917600 -0.15394101 3.87049603 1.000000
0.37738201 -0.15198800 3.83962607 1.000000
0.46808299 0.17693700 3.73631001 1.000000
0.35837701 0.01208900 3.98281503 1.000000
0.45787701 0.20720699 3.75350595 1.000000
0.35079199 0.04022700 4.00143290 1.000000
0.45548001 0.22713900 3.81613708 1.000000
0.38923800 0.08080700 4.00697517 1.000000
0.38155800 0.08401800 4.02684879 1.000000
0.47896200 0.10516900 3.68629909 1.000000
0.46785900 0.09735800 3.67758608 1.000000
0.33105800 -0.06401600 3.92497611 1.000000
0.33510301 -0.06675100 3.92453599 1.000000
0.46372399 0.05697300 3.65978789 1.000000
0.45407400 0.05538300 3.65389490 1.000000
0.32421100 -0.08225800 3.90180397 1.000000
0.41061199 0.13916600 4.01040697 1.000000
0.48962501 0.23864800 3.84128404 1.000000
0.43815899 0.07729400 3.64998293 1.000000
0.44327700 0.10574000 3.66429305 1.000000
0.31660399 -0.07086000 3.91112590 1.000000
0.41921201 0.07133000 3.63831091 1.000000
0.43016100 0.06713600 3.64330411 1.000000
0.29790300 -0.08184600 3.89303589 1.000000
0.30875799 -0.09187700 3.88609791 1.000000
0.35571799 -0.06548500 3.63804412 1.000000
0.32956800 -0.12967201 3.70746708 1.000000
0.35907400 -0.04951100 3.63153005 1.000000
0.30826399 -0.12884399 3.72483492 1.000000
0.45625201 0.25378299 3.79616308 1.000000
0.37819001 0.08808400 4.03495979 1.000000
0.45424101 0.26115301 3.77789211 1.000000
0.45100999 0.21103400 3.73349094 1.000000
0.34450099 0.03892600 4.00343704 1.000000
0.44358900 0.18907900 3.70618701 1.000000
0.32354900 -0.00092800 3.97577310 1.000000
0.35869399 -0.03195000 3.62726998 1.000000
0.30084401 -0.12906399 3.75529790 1.000000
0.37067801 -0.03938600 3.63092399 1.000000
0.38922101 -0.00958400 3.62841392 1.000000
0.31049001 -0.13195001 3.76943898 1.000000
0.45456100 0.16584200 3.71046090 1.000000
0.32213399 -0.03956600 3.94193602 1.000000
0.32324699 -0.00741500 3.97004509 1.000000
0.44299799 0.14721000 3.68223810 1.000000
0.31604001 -0.04878300 3.93330598 1.000000
0.31680399 -0.02608200 3.95415306 1.000000
0.45516199 0.22346200 3.76075697 1.000000
0.36715701 0.06951300 4.02327108 1.000000
0.45111501 0.23357400 3.75107789 1.000000
0.40850800 0.03354700 3.62982392 1.000000
0.41055200 0.03826000 3.63067698 1.000000
0.31165001 -0.10530900 3.87014198 1.000000
0.32007501 -0.11135500 3.86022210 1.000000
0.36149499 -0.00030900 3.62093306 1.000000
0.38778400 0.01195700 3.62595296 1.000000
