-0.80239701 -0.02934800 6.49245214 0.000000
-1.03148305 0.03698000 6.32863903 0.000000
-0.81496400 0.05044100 6.58441019 0.000000
-0.80616099 0.05544400 6.58816814 0.000000
-1.05046201 0.12667300 6.41431713 0.000000
-1.07615602 0.25036499 6.55823183 0.000000
-1.06269896 0.24459600 6.55706692 0.000000
-0.79305798 -0.01325700 6.50399590 0.000000
-1.04362500 0.04952500 6.32329798 0.000000
-1.03450704 0.03464700 6.32193804 0.000000
-0.76663500 0.00699600 6.49717808 0.000000
-1.06283104 0.07000900 6.32372522 0.000000
-0.79870403 0.07035800 6.60656595 0.000000
-1.06689000 0.14170501 6.40493393 0.000000
-1.06287205 0.14782199 6.42045021 0.000000
-0.78320903 0.05573500 6.56690407 0.000000
-0.78107500 0.05507200 6.56339502 0.000000
-1.04897106 0.10555600 6.38875103 0.000000
-1.06157601 0.11912300 6.38322592 0.000000
-0.46491900 0.50526398 5.76029682 0.000000
-0.80539799 0.56650698 5.68873501 0.000000
-0.46521601 0.53002501 5.76373291 0.000000
-0.80215698 0.57647502 5.70292711 0.000000
-0.47036201 0.55240899 5.81571388 0.000000
-0.46994799 0.56501901 5.83130693 0.000000
-0.46983001 0.56678802 5.83795881 0.000000
-0.46612999 0.59156197 5.84921598 0.000000
-0.46579099 0.59588701 5.86188221 0.000000
-0.46636701 0.62107599 5.86863184 0.000000
-0.44866499 0.73044199 6.02910185 0.000000
-0.47260901 0.71942699 6.02878523 0.000000
-0.78323197 0.61517900 6.02532911 0.000000
-0.77765799 0.25879899 6.70361805 0.000000
-1.08985996 0.34307101 6.50029993 0.000000
-0.75232798 0.24365200 6.72844887 0.000000
-1.11746597 0.34611401 6.51651382 0.000000
-1.10927296 0.33831099 6.50644302 0.000000
-1.11714900 0.36870301 6.50697803 0.000000
-1.12312400 0.38257399 6.51645708 0.000000
-0.81428897 0.26058900 6.69486809 0.000000
-1.04888797 0.36226201 6.50999784 0.000000
-1.08451402 0.38433999 6.49620008 0.000000
-0.78665298 0.25892299 6.69327116 0.000000
-1.07634103 0.38809299 6.48877621 0.000000
-1.08957899 0.39213601 6.50067520 0.000000
-1.12305701 0.37025401 6.51796103 0.000000
-1.12197196 0.33225399 6.52735186 0.000000
-1.03728294 0.34504700 6.52521706 0.000000
-0.81825101 0.27496600 6.70210981 0.000000
-1.04015696 0.34971499 6.51935101 0.000000
-0.81283599 0.29764101 6.70880508 0.000000
-0.58849901 0.63246697 5.14031219 0.000000
-0.54257500 0.62620503 5.12765408 0.000000
-0.54562300 0.61442798 5.13254404 0.000000
-0.48309600 0.56381398 4.87673283 0.000000
-0.70140600 0.56153101 4.86039305 0.000000
-0.48247400 0.56853199 4.88412809 0.000000
-0.56872100 0.62748700 5.13647795 0.000000
-0.64688897 0.61697698 5.13710403 0.000000
-0.55923802 0.51349998 4.77773285 0.000000
-0.63007301 0.51445299 4.77728081 0.000000
-0.53491801 0.51090199 4.79992390 0.000000
-0.64890999 0.51733100 4.79255581 0.000000
-0.69862801 0.62270498 5.10404110 0.000000
-0.52240002 0.61165100 5.12043619 0.000000
-0.54712802 0.72872800 4.85104990 0.000000
-0.62843400 0.76064903 4.84572983 0.000000
-0.52252901 0.69774997 4.88749504 0.000000
-0.55802298 0.75087601 4.84230185 0.000000
-0.51146501 0.69610399 4.91438484 0.000000
-0.62375301 0.88640797 4.94620705 0.000000
-0.61692202 0.85971099 4.98118782 0.000000
-0.62348801 0.84544700 4.98729897 0.000000
-0.61911398 0.86715299 4.97523212 0.000000
-0.63885301 0.81703103 4.99801493 0.000000
-0.55461198 0.70597601 5.07587719 0.000000
-0.64955199 0.74628901 5.04535007 0.000000
-0.64691198 0.75329399 5.03880882 0.000000
-0.63601398 0.85847503 4.96496582 0.000000
-0.56501400 0.89065599 4.95930576 0.000000
-0.59657401 0.89797002 4.96071386 0.000000
-0.64894903 0.74746001 5.04129314 0.000000
-0.61663097 0.89838898 4.97830486 0.000000
-0.64955598 0.80100000 5.01615000 0.000000
-0.65932500 0.73054200 5.03479815 0.000000
-0.55347502 0.68676198 5.08166790 0.000000
-0.54097903 0.67197597 5.05498695 0.000000
-0.54629397 0.68718499 5.06159878 0.000000
-0.66405600 0.66933900 5.05279684 0.000000
-0.66600001 0.66439301 5.04941082 0.000000
-0.65417802 0.68994701 5.07368803 0.000000
-0.55410701 0.69610202 5.08014584 0.000000
-0.65484500 0.73816699 5.05187607 0.000000
-0.66249299 0.72492599 5.04973793 0.000000
-0.54424798 0.85416102 4.97271204 0.000000
-0.54834300 0.87737697 4.95572376 0.000000
-0.53731298 0.84547299 4.99339914 0.000000
-0.55321699 0.89268303 4.97261381 0.000000
-0.64708102 0.75337398 5.03751612 0.000000
-0.54925901 0.74363297 5.05245495 0.000000
-0.51485002 0.47824299 5.35847616 0.000000
-0.68930501 0.48745000 5.30238295 0.000000
-0.48903799 0.46820500 5.36344814 0.000000
-0.64879799 0.53162199 5.33904600 0.000000
-0.55739200 0.51035798 5.35601377 0.000000
-0.64968097 0.53149301 5.30629921 0.000000
-0.60360301 0.60804802 5.18777609 0.000000
-0.61198401 0.61017603 5.17886877 0.000000
-0.44431499 0.39650500 5.34717703 0.000000
-0.62342799 0.03339500 5.37169218 0.000000
-0.61144298 0.03383600 5.37439680 0.000000
-0.77610701 0.64121503 6.06459618 0.000000
-0.50042498 0.59305501 5.90780306 0.000000
-0.78607500 0.55362701 5.85937977 0.000000
-0.52380401 0.57155401 5.89438391 0.000000
-0.78708899 0.54557198 5.84269285 0.000000
-0.52529901 0.52018499 5.84780407 0.000000
-0.50884199 0.51241702 5.83528805 0.000000
-0.77723497 0.52077502 5.78779221 0.000000
-0.48854700 0.67800403 5.98661184 0.000000
-0.77912301 0.59058702 5.95927095 0.000000
-0.47232500 0.71206599 6.02082300 0.000000
-0.79246002 0.60421300 5.96755695 0.000000
-0.81700200 -0.03764800 6.42197180 0.000000
-0.99282902 0.01970700 6.24896717 0.000000
-0.82814902 -0.03048700 6.45112610 0.000000
-0.99040800 0.02228100 6.27262497 0.000000
-0.79958099 0.09180000 6.40767908 0.000000
-1.01716006 0.15291300 6.22513390 0.000000
-0.76511198 0.09447800 6.38371992 0.000000
-1.00935996 0.14959800 6.24519110 0.000000
-0.80739701 0.08522200 6.39215612 0.000000
-0.97980601 0.13328999 6.24222612 0.000000
-0.83578300 0.06133400 6.40107203 0.000000
-0.97323102 0.12187800 6.26187181 0.000000
-0.84153700 0.00952100 6.43250704 0.000000
-0.97183901 0.06863200 6.28475094 0.000000
-0.97668803 0.06103800 6.29369211 0.000000
-0.80644202 -0.04268400 6.46682215 0.000000
-0.81105900 -0.04225000 6.46851397 0.000000
-1.01834095 0.01582600 6.30390406 0.000000
-0.74013400 0.03885400 6.48000193 0.000000
-1.07876301 0.10611500 6.30965900 0.000000
-0.76170200 -0.00055300 6.47521019 0.000000
-1.06581903 0.06632900 6.28828001 0.000000
-0.82323903 0.06390800 6.58467388 0.000000
-1.03103602 0.13612600 6.42316818 0.000000
-0.82627100 0.04946800 6.55873108 0.000000
-1.02156103 0.11830900 6.40111399 0.000000
-0.43704799 0.51886302 4.88192320 0.000000
-0.42265600 0.50559700 4.87245512 0.000000
-0.72599798 0.52144998 4.82893705 0.000000
-0.70316398 0.53351200 4.86466599 0.000000
-0.43160301 0.51577801 4.88463402 0.000000
-0.50386202 0.47821701 4.81676722 0.000000
-0.46626899 0.50087500 4.86633682 0.000000
-0.46521401 0.50689399 4.84295082 0.000000
-0.63999403 0.71519601 5.06533003 0.000000
-0.56349301 0.70748198 5.07426977 0.000000
-0.55105102 0.71067703 5.07273102 0.000000
-0.54667401 0.70316100 5.07469511 0.000000
-0.64705402 0.70999599 5.06857300 0.000000
-0.51510900 0.69178301 5.03908587 0.000000
-0.68370599 0.69665098 5.02566910 0.000000
-0.51089001 0.69337898 5.01418686 0.000000
-0.68869799 0.68965501 5.01893377 0.000000
-0.48655200 0.62995702 4.94395113 0.000000
-0.70613402 0.63463801 4.93982601 0.000000
-0.48987699 0.64215398 4.93749523 0.000000
-0.70192200 0.64423501 4.92840290 0.000000
-0.51096499 0.67530602 5.05989599 0.000000
-0.70093399 0.66333097 5.05043983 0.000000
-0.52288502 0.68928403 5.05986595 0.000000
-0.69676697 0.66170001 5.07780886 0.000000
-0.48469600 0.61543000 4.89625788 0.000000
-0.48593500 0.61910802 4.88408709 0.000000
-0.70282900 0.62785602 4.89023495 0.000000
-0.48428100 0.57952702 4.91497803 0.000000
-0.70689702 0.57231098 4.90244198 0.000000
-0.70663899 0.57162100 4.91170597 0.000000
-0.48463500 0.60607499 5.00487900 0.000000
-0.71449399 0.60184503 4.97400093 0.000000
-0.48435000 0.59910101 5.02418900 0.000000
-0.71704203 0.59351599 5.00545216 0.000000
-0.49289000 0.65674698 4.99744177 0.000000
-0.70840800 0.64933002 4.99533606 0.000000
-0.48765701 0.63587302 4.95545101 0.000000
-0.70682299 0.63628101 4.95062017 0.000000
-0.70685703 0.63980800 4.95940018 0.000000
-0.65997398 0.79343301 4.98010397 0.000000
-0.52970999 0.77252698 4.98034477 0.000000
-0.66366398 0.76942700 4.97178411 0.000000
-0.51027697 0.69809300 4.97620916 0.000000
-0.68220800 0.70253199 4.99155807 0.000000
-0.50050300 0.67604399 4.99554920 0.000000
-0.69520497 0.67705297 4.98121595 0.000000
-0.63616902 0.69368500 4.83072710 0.000000
-0.61913502 0.70401299 4.82124281 0.000000
-0.54742002 0.62746203 4.79964495 0.000000
-0.54117501 0.59412003 4.79262018 0.000000
-0.51624900 0.60190701 4.79833412 0.000000
-0.48437500 0.61040902 4.86438417 0.000000
-0.70345801 0.60915202 4.83649397 0.000000
-0.69876897 0.63637698 4.88376188 0.000000
-0.68910599 0.65832102 4.89161205 0.000000
-0.68283898 0.67188102 4.89428377 0.000000
-0.52856100 0.72655100 4.88962078 0.000000
-0.65794498 0.74463302 4.89554691 0.000000
-0.61914998 0.78297597 4.84251213 0.000000
-0.61264497 0.77915800 4.83785009 0.000000
-0.57604897 0.73707998 4.82603312 0.000000
-0.63577002 0.67826003 4.82235384 0.000000
-0.63967401 0.72029901 4.84781408 0.000000
-0.55474001 0.67609298 4.81948185 0.000000
-0.62484902 0.72897297 4.83340120 0.000000
-0.56969702 0.66909802 4.80934000 0.000000
-0.61173099 0.65675402 4.80245209 0.000000
-0.52396703 0.62578797 4.80623007 0.000000
-0.66167700 0.64130700 4.81540918 0.000000
-0.64658701 0.66280001 4.82290792 0.000000
-0.63677400 0.60879397 4.79239798 0.000000
-0.63019103 0.66180402 4.81158209 0.000000
-0.52068299 0.67069203 4.87263489 0.000000
-0.62880802 0.79970300 4.85436010 0.000000
-0.65312397 0.77104002 4.89468622 0.000000
-0.55561298 0.81502801 4.85705900 0.000000
-0.65093797 0.80664301 5.01036501 0.000000
-0.53728598 0.80751997 4.99998522 0.000000
-0.64596999 0.76729101 5.03653097 0.000000
-0.55113900 0.76305997 5.03463697 0.000000
-0.55187601 0.79516900 5.02472210 0.000000
-0.66553301 0.76096600 4.96949291 0.000000
-0.52994198 0.75487000 4.99492121 0.000000
-0.56510901 0.88297898 4.87308788 0.000000
-0.65425599 0.83535802 4.97950697 0.000000
-0.65494901 0.83991402 4.97080612 0.000000
-0.64997900 0.81862903 5.00737286 0.000000
-0.53713900 0.82328600 4.99601507 0.000000
-0.58980697 0.47052300 4.74472523 0.000000
-0.57973200 0.44852200 4.74996281 0.000000
-0.60378301 0.45564201 4.74272299 0.000000
-0.61953801 0.63461602 4.79655123 0.000000
-0.58397001 0.79117900 5.02564096 0.000000
-0.61148697 0.78045100 5.02888393 0.000000
-0.59230202 0.81610799 5.01632118 0.000000
-0.59768701 0.81365103 5.01702785 0.000000
-0.57443702 0.83532500 5.00652695 0.000000
-0.59807497 0.84058499 5.00599909 0.000000
-0.60594302 0.86507899 4.99738121 0.000000
-0.56628603 0.82226902 4.85113716 0.000000
-0.56619400 0.54505497 4.77921391 0.000000
-0.61870003 0.53379297 4.77126884 0.000000
-0.56903100 0.50571299 4.76483822 0.000000
-0.57670802 0.74883699 4.82882690 0.000000
-0.56753802 0.86926699 4.97567987 0.000000
-0.57814401 0.87328702 4.97348309 0.000000
-0.59097302 0.89686298 4.94607019 0.000000
-0.57098699 0.70457798 4.82004976 0.000000
-0.60029697 0.77957797 4.83350801 0.000000
-0.61871099 0.67882103 4.81287909 0.000000
-0.61908501 0.59672803 4.78620195 0.000000
-0.61379802 0.61723602 4.78959799 0.000000
-0.57928300 0.66493303 4.80427313 0.000000
-0.57549202 0.82138199 4.84555817 0.000000
-0.63436198 0.89766997 4.96095324 0.000000
-0.48632801 0.54934502 4.87444496 0.000000
-0.69264603 0.54893500 4.84241915 0.000000
-0.48804501 0.56429201 4.83522177 0.000000
-0.69017899 0.55413699 4.82257509 0.000000
-0.53628701 0.86986297 4.93564796 0.000000
-0.65415698 0.84966803 4.96179724 0.000000
-0.53005999 0.82726300 4.96658707 0.000000
-0.52876198 0.82633102 4.94953489 0.000000
-0.65937501 0.81620598 4.95524788 0.000000
-0.65650499 0.83972502 4.94095182 0.000000
-0.65664297 0.81004101 4.93007517 0.000000
-0.46134099 0.71709102 6.02099895 0.000000
-0.79436499 0.60976702 5.97712517 0.000000
-0.48072600 0.66473502 5.96654701 0.000000
-0.79456699 0.60744703 5.96712923 0.000000
-0.80080903 0.54446602 5.77071381 0.000000
-0.49533299 0.50485897 5.81403685 0.000000
-0.79448301 0.53005999 5.75393581 0.000000
-0.49778801 0.61114502 5.92074108 0.000000
-0.79115403 0.56210297 5.86599922 0.000000
-0.79596502 0.56954402 5.86733007 0.000000
-0.50113702 0.45221999 5.76644993 0.000000
-0.78492099 0.49380600 5.67577982 0.000000
-0.50908899 0.48722899 5.80875587 0.000000
-0.79143500 0.50613803 5.68297720 0.000000
-0.53794599 0.31134900 5.00679922 0.000000
-0.54189801 0.29612499 5.00058079 0.000000
-0.53518403 0.31408799 5.01584196 0.000000
-0.53838497 0.30069399 5.01143694 0.000000
-0.61991400 0.35189199 4.98400211 0.000000
-0.61611599 0.34645799 4.97813797 0.000000
-0.61236000 0.30982000 5.01351690 0.000000
-0.62046200 0.34932300 4.98926401 0.000000
-0.54266602 0.37528500 4.94893408 0.000000
-0.54231697 0.33502099 4.97556305 0.000000
-0.54768199 0.32236499 4.96082306 0.000000
-0.53996301 0.36958501 4.96390295 0.000000
-0.60165101 0.35520601 4.92606497 0.000000
-0.60096300 0.32981199 4.95280600 0.000000
-0.61048299 0.35072699 4.95583105 0.000000
-0.60403800 0.36353901 4.92333603 0.000000
-0.37129000 0.50917602 4.73103619 0.000000
-0.62488401 0.47107199 4.81731510 0.000000
-0.47675201 0.52156001 4.88366318 0.000000
-0.68408698 0.55185002 4.70605993 0.000000
-0.69821101 0.55514699 4.70343781 0.000000
-0.66569799 0.61493403 4.79785109 0.000000
-0.49464500 0.60253102 4.81187296 0.000000
-0.70368803 0.59886903 4.82449293 0.000000
-0.67329401 0.63906801 4.83127117 0.000000
-0.51276398 0.64428103 4.85843420 0.000000
-0.48679101 0.49941501 4.89707613 0.000000
-0.67252702 0.50978100 4.85895681 0.000000
-0.47830501 0.52061403 4.89316797 0.000000
-0.68963701 0.53000301 4.92235899 0.000000
-0.48695201 0.53263402 4.95341301 0.000000
-0.47587001 0.52072698 4.93686008 0.000000
-0.69513398 0.52603102 4.92651510 0.000000
-0.68253100 0.50206298 4.90901089 0.000000
-0.84217900 0.01424800 6.18520689 0.000000
-0.84348100 0.00631100 6.19998693 0.000000
-0.84118998 0.02327100 6.15711498 0.000000
-0.90373403 0.12495700 6.06945610 0.000000
-0.89990199 0.14359500 6.06347609 0.000000
-0.89067900 0.11468700 6.06543589 0.000000
-0.84289300 -0.01076900 6.17414904 0.000000
-0.83683097 0.00715400 6.11545610 0.000000
-0.83713198 -0.01255200 6.13062191 0.000000
-0.84027600 -0.00710100 6.15146399 0.000000
-0.89810199 0.07669700 6.07045078 0.000000
-0.86223501 0.10284300 6.05404186 0.000000
-0.84099197 0.05388000 6.46670294 0.000000
-0.83911800 0.06559900 6.46064520 0.000000
-0.96948397 0.10365000 6.29070091 0.000000
-0.84354597 0.03633300 6.47529888 0.000000
-0.84221703 0.02153900 6.46114397 0.000000
-0.97488302 0.08245600 6.30119991 0.000000
-0.83957601 0.14676100 6.61940002 0.000000
-1.01307797 0.21320599 6.43868303 0.000000
-1.01348102 0.22698900 6.45504189 0.000000
-0.83698601 0.16234800 6.62470818 0.000000
-1.01772106 0.24891900 6.44974184 0.000000
-0.83475500 0.03006900 6.36321878 0.000000
-0.95570099 0.09744400 6.19611120 0.000000
-0.95456898 0.09883100 6.18835115 0.000000
-0.82470101 0.05530900 6.34274721 0.000000
-0.95734102 0.11167600 6.18167591 0.000000
-1.02902603 0.33614001 6.53828287 0.000000
-0.84211802 0.02146400 6.44604921 0.000000
-0.96738303 0.09564400 6.27979422 0.000000
-0.84159100 0.05319600 6.41697216 0.000000
-0.83320099 -0.00051500 6.09230518 0.000000
-0.83646500 0.03156200 6.09677792 0.000000
-0.84546202 0.04391100 6.06087589 0.000000
-0.85553998 0.07936900 6.05655098 0.000000
-0.53148198 0.84704298 4.93455315 0.000000
-0.63970101 0.75244498 4.85950994 0.000000
-0.63292599 0.82760900 4.86193085 0.000000
-0.63898498 0.77541202 4.86372805 0.000000
-0.55348998 0.78419799 4.85518789 0.000000
-0.50593603 0.52706301 4.83268976 0.000000
-0.51399201 0.52946299 4.82073593 0.000000
-0.66916502 0.53529400 4.81369305 0.000000
-0.50763500 0.55326700 4.81218290 0.000000
-0.67732400 0.54026598 4.82074785 0.000000
-0.68907201 0.59687299 4.80329895 0.000000
-0.49822801 0.61723399 4.81775904 0.000000
-0.49331301 0.61252302 4.81980610 0.000000
-0.76103002 0.04780000 6.52631378 0.000000
-0.74699497 0.04129500 6.49653816 0.000000
-1.07068098 0.08461000 6.32683277 0.000000
-0.75764602 0.06777300 6.53844595 0.000000
-0.75871903 0.07010100 6.54303694 0.000000
-1.07712495 0.13699500 6.36382389 0.000000
-0.77213800 0.17812900 6.72248507 0.000000
-1.10876703 0.25949699 6.50549507 0.000000
-0.76022899 0.15378700 6.67987204 0.000000
-0.77602100 0.15525000 6.71885300 0.000000
-1.10587001 0.24827500 6.49782896 0.000000
-0.79555899 0.11792600 6.48683023 0.000000
-1.02780700 0.19727200 6.35681391 0.000000
-0.79298598 0.11512100 6.47798204 0.000000
-0.79664701 0.11335000 6.47479296 0.000000
-1.03736997 0.18633500 6.32988882 0.000000
-0.82050502 0.09485900 6.46768284 0.000000
-0.80533999 0.10750400 6.46800280 0.000000
-0.98643798 0.14115299 6.31372118 0.000000
-1.00433195 0.16389300 6.33077478 0.000000
-0.81182200 0.12773401 6.52944708 0.000000
-1.01461506 0.18164399 6.34928322 0.000000
-1.02033496 0.18706000 6.34592295 0.000000
-0.82533503 0.24860901 6.69715595 0.000000
-1.04166305 0.32356101 6.49761486 0.000000
-0.82699001 0.21860000 6.66949415 0.000000
-0.82162499 0.20912200 6.65148115 0.000000
-1.03712296 0.29822701 6.47744179 0.000000
-0.76580101 0.19104500 6.70940495 0.000000
-1.11436403 0.30265999 6.52522612 0.000000
-0.75837803 0.18543300 6.68286705 0.000000
-1.10969806 0.27608901 6.50514984 0.000000
-1.11275399 0.27988300 6.52051497 0.000000
-0.75324601 0.08913700 6.49832010 0.000000
-0.75578499 0.09576800 6.50466824 0.000000
-1.06328201 0.15015100 6.29800797 0.000000
-1.06536901 0.14148200 6.29413986 0.000000
-0.74910802 0.07519100 6.50994587 0.000000
-1.07485902 0.16023900 6.35433388 0.000000
-1.07291698 0.15154301 6.33458519 0.000000
-0.83763897 0.03101600 6.49722910 0.000000
-0.99744397 0.06646100 6.34127903 0.000000
-1.00281596 0.07800800 6.35392189 0.000000
-0.83240300 0.03443000 6.51712799 0.000000
-1.00076997 0.12244900 6.36996508 0.000000
-0.99574298 0.13357300 6.36742306 0.000000
-0.84718901 0.15985399 6.69916821 0.000000
-1.02386904 0.24012800 6.51048183 0.000000
-1.02587605 0.22995700 6.51246023 0.000000
-0.84690100 0.16835900 6.67090511 0.000000
-1.02087796 0.24480499 6.50332403 0.000000
-1.01540899 0.24060300 6.48440886 0.000000
-0.77362299 0.11561600 6.48833179 0.000000
-0.77738798 0.12692100 6.51587391 0.000000
-1.05556500 0.18280300 6.34019613 0.000000
-0.75718200 0.09999500 6.50182295 0.000000
-0.75492400 0.09229100 6.46882677 0.000000
-1.05479395 0.15394300 6.29093122 0.000000
-0.77591699 0.22848301 6.69514179 0.000000
-0.76754701 0.21652700 6.67179823 0.000000
-0.81838298 0.10837400 6.67293787 0.000000
-1.05254197 0.19770700 6.50655985 0.000000
-1.05408001 0.18763299 6.49266100 0.000000
-0.81950200 0.13377000 6.71495819 0.000000
-1.05475104 0.21839100 6.53440094 0.000000
-0.80661303 0.02952800 6.55229378 0.000000
-0.81334102 0.01909500 6.54327011 0.000000
-0.81373101 0.01808400 6.54243708 0.000000
-1.02355397 0.05549300 6.35568523 0.000000
-0.78728497 0.13284500 6.70092201 0.000000
-1.09650600 0.23004501 6.50795889 0.000000
-0.80144602 0.11373600 6.68518591 0.000000
-0.79257703 0.11218200 6.67207193 0.000000
-1.08234000 0.20997900 6.50074005 0.000000
-0.76466501 0.02079000 6.51106882 0.000000
-0.76218599 0.03491300 6.52196503 0.000000
-1.06462502 0.08593200 6.33877516 0.000000
-1.05614901 0.06778400 6.33191299 0.000000
-0.79405802 0.02641500 6.54382801 0.000000
-1.04832995 0.08885300 6.36938810 0.000000
-1.04576099 0.08288700 6.36675978 0.000000
-0.82669002 0.10462000 6.65557194 0.000000
-0.83107400 0.12909800 6.69693899 0.000000
-1.04447603 0.21098199 6.52003813 0.000000
-0.84157598 0.13725500 6.67058897 0.000000
-0.84156603 0.13525900 6.66583395 0.000000
-1.04074502 0.23600200 6.54149389 0.000000
-0.82686102 0.02776800 6.53014612 0.000000
-0.82153100 0.00054000 6.51934195 0.000000
-1.01810896 0.08711600 6.37575912 0.000000
-0.81478798 0.23728900 6.67548800 0.000000
-1.04539001 0.33219701 6.50266123 0.000000
-0.84158403 0.04819500 6.48747683 0.000000
-0.83836502 0.06954100 6.50587893 0.000000
-0.98607302 0.10880300 6.34047890 0.000000
-0.98532301 0.12169600 6.33150291 0.000000
-0.83273000 0.09156500 6.49245691 0.000000
-0.83447999 0.08655900 6.51947880 0.000000
-0.99000001 0.13731299 6.34283018 0.000000
-0.84306902 0.21406300 6.68771505 0.000000
-1.02149701 0.28754801 6.49392700 0.000000
-0.84757203 0.17527300 6.66346693 0.000000
-0.84778601 0.17609100 6.66480923 0.000000
-1.01735902 0.26422200 6.50363207 0.000000
-0.47676700 0.53211802 5.68417597 0.000000
-0.77439499 0.60168499 5.61723614 0.000000
-0.48286599 0.53574300 5.67441320 0.000000
-0.76226300 0.60250598 5.59121084 0.000000
-0.76015902 0.60702097 5.61008501 0.000000
-0.54781801 0.53529400 5.67379904 0.000000
-0.69807702 0.56956899 5.61875486 0.000000
-0.56464398 0.52157402 5.67117786 0.000000
-0.69647598 0.56505501 5.59678411 0.000000
-0.55944699 0.46952599 5.74423885 0.000000
-0.46843001 0.48013300 5.75387478 0.000000
-0.80730897 0.52731001 5.66575480 0.000000
-0.46944699 0.46349701 5.74353504 0.000000
-0.51502699 0.53970098 5.65952015 0.000000
-0.73819399 0.60372299 5.61625195 0.000000
-0.49305999 0.53052503 5.65395784 0.000000
-0.73799300 0.60001701 5.58616877 0.000000
-0.56797802 0.48875400 5.72097015 0.000000
-0.56998903 0.50288498 5.71357393 0.000000
-0.71153200 0.51859301 5.66820383 0.000000
-0.45676699 0.49158400 5.70580912 0.000000
-0.80364001 0.57457900 5.63687897 0.000000
-0.80555701 0.57189101 5.59473324 0.000000
-0.80187798 0.57640898 5.59969902 0.000000
-0.78790998 0.59297901 5.61717176 0.000000
-0.46155000 0.49618599 5.74054718 0.000000
-0.81018001 0.55212700 5.67104387 0.000000
-0.81169498 0.55770397 5.62558317 0.000000
-0.80877697 0.56551600 5.61772680 0.000000
-0.49292901 0.70861799 6.01963282 0.000000
-0.76307398 0.63304698 6.05462503 0.000000
-0.48661599 0.72078198 6.03108978 0.000000
-0.76932800 0.63143402 6.05266094 0.000000
-0.80624098 0.67606997 6.07029009 0.000000
-0.80757499 0.66412300 6.03293419 0.000000
-0.51040101 0.71337199 6.01068020 0.000000
-0.74795502 0.61984003 6.01445293 0.000000
-0.50612801 0.75566298 6.03110313 0.000000
-0.75707197 0.63940197 6.05747700 0.000000
-0.80310500 0.64212298 6.03376818 0.000000
-0.43579599 0.74606901 6.03429079 0.000000
-0.43419999 0.74946898 6.05300283 0.000000
-0.76430899 0.06712600 6.55219889 0.000000
-0.76621598 0.06717400 6.55699110 0.000000
-1.07699096 0.14158900 6.37289095 0.000000
-1.07517803 0.14917301 6.39715576 0.000000
-0.75967598 0.08732700 6.56716490 0.000000
-1.07974696 0.16555899 6.40649891 0.000000
-0.80534601 0.17015800 6.59294415 0.000000
-0.80164301 0.17382300 6.59751081 0.000000
-1.04462004 0.25270101 6.41896009 0.000000
-0.79381102 0.21796700 6.65120888 0.000000
-1.05656004 0.26635799 6.42916679 0.000000
-1.06639898 0.30834100 6.46977615 0.000000
-0.81947303 0.13249201 6.54821301 0.000000
-0.81064397 0.13564099 6.54119682 0.000000
-1.01517999 0.21397400 6.40430689 0.000000
-0.81716502 0.15152900 6.57673502 0.000000
-0.80334300 0.14122599 6.54051685 0.000000
-1.02949500 0.23487800 6.40992689 0.000000
-0.76176602 0.16139200 6.62729597 0.000000
-0.76095998 0.16540200 6.63688707 0.000000
-1.09538496 0.26355901 6.45921183 0.000000
-0.76304799 0.15014000 6.60873604 0.000000
-0.76033998 0.14959000 6.63475418 0.000000
-1.09470499 0.24041200 6.45133400 0.000000
-1.09118605 0.22056800 6.43487310 0.000000
-0.83052200 0.05480700 6.54433393 0.000000
-0.82950997 0.06797100 6.56804514 0.000000
-1.00936997 0.11437200 6.38070488 0.000000
-1.00149798 0.13824999 6.37959719 0.000000
-0.83747101 0.10685700 6.57984018 0.000000
-0.83419698 0.08104500 6.55823088 0.000000
-1.01427400 0.17237100 6.42325211 0.000000
-1.00607705 0.15914300 6.40060091 0.000000
-0.77094400 0.15730500 6.59661722 0.000000
-0.77425098 0.16419999 6.60087681 0.000000
-1.05964303 0.21846101 6.38175106 0.000000
-0.77589798 0.12861601 6.52639818 0.000000
-0.76621097 0.13814899 6.57136917 0.000000
-0.76889902 0.13681599 6.56157112 0.000000
-1.04626906 0.19927800 6.35018778 0.000000
-1.06833696 0.20229100 6.37405205 0.000000
-1.05172098 0.16026001 6.45180321 0.000000
-0.80318302 0.07388800 6.61410713 0.000000
-1.05673599 0.17197800 6.46870422 0.000000
-0.77682298 0.10437700 6.63733196 0.000000
-0.78182101 0.10198100 6.63923597 0.000000
-1.08013201 0.19201601 6.46615696 0.000000
-1.08922195 0.21043900 6.48664284 0.000000
-0.79274702 0.09812300 6.64610720 0.000000
-1.06684303 0.17018101 6.45010805 0.000000
-1.06301606 0.17384800 6.46706486 0.000000
-0.82634699 0.08742700 6.61993694 0.000000
-1.02945495 0.17351399 6.45753908 0.000000
-1.02525902 0.19945800 6.47935820 0.000000
-1.03767002 0.17111200 6.46659088 0.000000
-0.82972199 0.11150500 6.53796196 0.000000
-0.83349699 0.09392500 6.53171396 0.000000
-1.00991595 0.19092301 6.42468214 0.000000
-1.00097001 0.16091999 6.36675596 0.000000
-0.83418900 0.12787201 6.59024191 0.000000
-0.82895797 0.11287000 6.53590202 0.000000
-1.01508200 0.21945401 6.41931486 0.000000
-1.00848401 0.19454201 6.38673496 0.000000
-1.09278095 0.39196301 6.50018501 0.000000
-1.04610801 0.40889800 6.52113914 0.000000
-1.05252898 0.38218701 6.50192690 0.000000
-1.12875998 0.37877300 6.52253580 0.000000
-0.60232300 0.44555300 4.77202415 0.000000
-0.57714301 0.44232500 4.78758478 0.000000
-0.59258503 0.43548101 4.76501322 0.000000
-0.56356299 0.45521700 4.78961515 0.000000
-0.53773302 0.65734899 5.86337423 0.000000
-0.72340000 0.61593699 5.85497093 0.000000
-0.54079401 0.67317098 5.89804316 0.000000
-0.72701800 0.62043101 5.87670898 0.000000
-0.54295200 0.66780299 5.90706015 0.000000
-0.72249299 0.59669501 5.88316917 0.000000
-0.71487999 0.58078098 5.85087585 0.000000
-0.51317799 0.75366497 5.98057890 0.000000
-0.50828898 0.74974900 5.95932007 0.000000
-0.73331100 0.66567498 5.99520588 0.000000
-0.72921598 0.67168999 6.03404188 0.000000
-0.51341099 0.72163701 5.92907715 0.000000
-0.73334497 0.65529102 5.98536921 0.000000
-0.50481498 0.49057800 4.96790123 0.000000
-0.50713301 0.48859501 4.92969418 0.000000
-0.66965300 0.48049200 4.92834282 0.000000
-0.65377897 0.46794000 4.92391586 0.000000
-0.67364299 0.48102900 4.94234085 0.000000
-0.51731098 0.48117000 4.89695501 0.000000
-0.50333899 0.49191701 4.91425323 0.000000
-0.64557302 0.47436100 4.86904812 0.000000
-0.54383397 0.46606600 4.83815622 0.000000
-0.54796201 0.46152499 4.86197186 0.000000
-0.62690902 0.45782599 4.87366486 0.000000
-0.60365999 0.45562401 4.82765484 0.000000
-0.55221802 0.77293497 5.02946377 0.000000
-0.63727701 0.86158502 4.96369410 0.000000
-0.64385301 0.80286700 5.02352285 0.000000
-0.64340502 0.77762002 5.03294420 0.000000
-0.50427902 0.63681602 5.09506512 0.000000
-0.71122599 0.61505598 5.08303022 0.000000
-0.70784599 0.61593199 5.09176111 0.000000
-0.51787400 0.55505401 5.12495995 0.000000
-0.69386500 0.53300399 5.10736799 0.000000
-0.50439501 0.52784199 5.13195896 0.000000
-0.51724100 0.54811400 5.14380503 0.000000
-0.69573599 0.52470702 5.13913918 0.000000
-0.57159102 0.58782202 5.19465923 0.000000
-0.54149598 0.57546097 5.15376520 0.000000
-0.54385501 0.57054800 5.16154909 0.000000
-0.49372101 0.57700300 5.06061697 0.000000
-0.71239197 0.56890398 5.05432987 0.000000
-0.50065303 0.55825400 5.05951214 0.000000
-0.70009100 0.55272800 5.07838202 0.000000
-0.65248102 0.58303201 5.16564322 0.000000
-0.53304702 0.58191103 5.13603687 0.000000
-0.68617201 0.56261200 5.12090588 0.000000
-0.68453801 0.55341202 5.12536001 0.000000
-0.50964701 0.58168602 5.10407305 0.000000
-0.51660800 0.57049501 5.11372185 0.000000
-0.69222498 0.54708397 5.09649801 0.000000
-0.49557200 0.55020100 4.97743893 0.000000
-0.70349699 0.55186498 4.99008083 0.000000
-0.57142597 0.57418799 5.24233913 0.000000
-0.64423400 0.57945800 5.21672821 0.000000
-0.64041400 0.58492798 5.20781422 0.000000
-0.54208398 0.56094599 5.18602514 0.000000
-0.68092400 0.54135799 5.17445278 0.000000
-0.55217600 0.57099497 5.18109894 0.000000
-0.66541398 0.56015402 5.17679405 0.000000
-0.50122899 0.52635401 5.08813381 0.000000
-0.69991398 0.50772703 5.08893824 0.000000
-0.69882101 0.51121002 5.08310080 0.000000
-0.49949101 0.52653003 5.05537605 0.000000
-0.69608802 0.51259202 5.04067898 0.000000
-0.52285701 0.54007697 5.19163704 0.000000
-0.68166298 0.54218799 5.16484404 0.000000
-0.52890700 0.55927098 5.14944315 0.000000
-0.68168998 0.54950500 5.13944817 0.000000
-0.55494201 0.56613100 5.21386623 0.000000
-0.65944600 0.56046999 5.23217821 0.000000
-0.56557399 0.58165401 5.19641304 0.000000
-0.66909999 0.55073899 5.20013523 0.000000
-0.48582900 0.48417601 5.16254377 0.000000
-0.50145102 0.51562101 5.15686321 0.000000
-0.49422401 0.50775898 5.13445997 0.000000
-0.71102798 0.45994401 5.14338779 0.000000
-0.70203203 0.50342399 5.11697912 0.000000
-0.70089501 0.50446099 5.14628696 0.000000
-0.49448100 0.49884701 5.17214298 0.000000
-0.49400100 0.49770200 5.17393017 0.000000
-0.49078500 0.48981601 5.18780804 0.000000
-0.71129602 0.44572899 5.17454815 0.000000
-0.70582497 0.47542199 5.16334486 0.000000
-0.71094602 0.43973899 5.19062281 0.000000
-0.49948299 0.49620000 4.93028402 0.000000
-0.50233400 0.50755000 4.98780203 0.000000
-0.68655998 0.50558901 4.95608377 0.000000
-0.68493998 0.50591898 4.93862581 0.000000
-0.68657100 0.50034499 4.96916008 0.000000
-0.49634999 0.53783500 4.96394491 0.000000
-0.68914402 0.51759601 4.94369411 0.000000
-0.73302102 0.11063800 6.22835922 0.000000
-1.00323200 0.23630600 6.00289011 0.000000
-1.01504397 0.23239399 6.00779104 0.000000
-0.72606999 0.10338700 6.24609709 0.000000
-1.04758096 0.20818700 6.04999208 0.000000
-1.04118896 0.21394300 6.04247999 0.000000
-0.80100799 0.08303100 6.26094484 0.000000
-0.94620103 0.19004001 6.06712103 0.000000
-0.96878701 0.18364599 6.09661293 0.000000
-0.96228403 0.16727200 6.10709715 0.000000
-0.95991600 0.19141600 6.07955122 0.000000
-0.80288702 0.08624600 6.20185995 0.000000
-0.81818300 0.06728400 6.21704292 0.000000
-0.80662501 0.08306400 6.18529797 0.000000
-0.80431998 0.08104800 6.25108480 0.000000
-0.92913997 0.17163099 6.07035112 0.000000
-0.94615400 0.17833000 6.07951880 0.000000
-0.94902098 0.16548499 6.09603310 0.000000
-0.82961500 -0.01956400 6.26054478 0.000000
-0.82800800 -0.02888000 6.23817301 0.000000
-0.83191597 -0.00483200 6.28634310 0.000000
-0.82856297 -0.03028600 6.26664877 0.000000
-0.83046901 -0.01803400 6.28780413 0.000000
-0.97364998 0.07078200 6.14055681 0.000000
-0.96446300 0.07775200 6.13642216 0.000000
-0.82807600 -0.03454100 6.20911217 0.000000
-0.83186400 -0.00806200 6.24532318 0.000000
-0.83632398 0.01257300 6.26997614 0.000000
-0.94173503 0.07651500 6.09732294 0.000000
-0.76507097 0.10430100 6.20796394 0.000000
-0.76992899 0.10451500 6.19714022 0.000000
-0.99860698 0.21503501 6.05016899 0.000000
-0.99419701 0.22131599 6.03453779 0.000000
-1.00675499 0.22623999 6.02800179 0.000000
-0.99045998 0.21586500 6.04540300 0.000000
-0.98679900 0.22832599 6.01621008 0.000000
-0.77783602 0.10199600 6.19961405 0.000000
-0.78177899 0.09745500 6.25541306 0.000000
-0.76934600 0.10048500 6.25035286 0.000000
-1.01818895 0.21396400 6.06152821 0.000000
-0.95567203 0.21677300 6.04584885 0.000000
-0.68397802 0.03627100 6.25625801 0.000000
-0.68394899 0.00441700 6.27157402 0.000000
-0.68416899 0.00018400 6.27438211 0.000000
-1.08206999 0.09755300 6.05267906 0.000000
-1.08278203 0.15342800 6.04409981 0.000000
-1.08332705 0.11665200 6.06942606 0.000000
-1.08216798 0.16382800 6.02801991 0.000000
-1.08349597 0.14959700 6.05950117 0.000000
-0.68422300 -0.01223200 6.27865887 0.000000
-0.69763499 0.01180900 6.30770779 0.000000
-1.08101296 0.08226500 6.07871723 0.000000
-1.08170402 0.08268600 6.07315111 0.000000
-1.08061004 0.09133300 6.08778095 0.000000
-1.08174300 0.10913000 6.08933496 0.000000
-0.76919699 -0.05707200 6.29770184 0.000000
-1.03951895 0.04840500 6.08463717 0.000000
-1.02172101 0.05006000 6.09923887 0.000000
-0.79515201 -0.06818600 6.28157282 0.000000
-0.80099499 -0.06541500 6.31909513 0.000000
-0.79150897 -0.06227800 6.31766796 0.000000
-1.00690496 0.04839000 6.11029720 0.000000
-0.82781303 0.04543900 6.25580120 0.000000
-0.83162999 0.03480100 6.27599907 0.000000
-0.81474000 0.06493500 6.26153183 0.000000
-0.82233202 0.05487100 6.25263596 0.000000
-0.93066800 0.12248900 6.11235809 0.000000
-0.95177001 0.14826500 6.11270905 0.000000
-0.93937898 0.11898800 6.12315416 0.000000
-0.84072602 0.01595800 6.21020985 0.000000
-0.83541399 0.03472200 6.22973585 0.000000
-0.83411199 0.04070200 6.22557020 0.000000
-0.84266800 0.00852700 6.20677519 0.000000
-0.84108597 0.00859300 6.24839115 0.000000
-0.90982401 0.14914700 6.06806612 0.000000
-0.91760898 0.10603300 6.08970785 0.000000
-0.52809697 0.23610599 5.13748884 0.000000
-0.54206502 0.22722600 5.12416983 0.000000
-0.62296700 0.24240901 5.10781193 0.000000
-0.53428102 0.23814499 5.11705303 0.000000
-0.60057402 0.22345300 5.08612585 0.000000
-0.61614001 0.23829301 5.10466099 0.000000
-0.53240198 0.18400700 5.19315910 0.000000
-0.54407603 0.17265300 5.18564510 0.000000
-0.54646599 0.17572400 5.17484522 0.000000
-0.55082899 0.16931200 5.17432117 0.000000
-0.60684401 0.16325200 5.16704988 0.000000
-0.61722398 0.17697100 5.16642714 0.000000
-0.64274299 0.86969399 4.97991800 0.000000
-0.54482502 0.85419798 4.99806213 0.000000
-0.48992401 0.57623601 5.02846003 0.000000
-0.70864099 0.55686003 5.01919317 0.000000
-0.49190500 0.57027799 5.03531313 0.000000
-0.70296597 0.54555601 5.02535200 0.000000
-0.50032300 0.53889102 5.02179909 0.000000
-0.68842202 0.50257200 4.99064207 0.000000
-0.69281501 0.51714802 5.00943613 0.000000
-0.50042802 0.54075402 5.04375076 0.000000
-0.50200599 0.50459403 5.01166010 0.000000
-0.68774199 0.49864301 4.99313879 0.000000
-0.69548500 0.52419800 5.02313995 0.000000
-0.51640701 0.65145302 4.86042404 0.000000
-0.53528899 0.75653201 4.88550901 0.000000
-0.64771003 0.80971402 4.88299704 0.000000
-0.80908000 0.66805500 6.01527405 0.000000
-0.45631400 0.69022602 5.94551897 0.000000
-0.80586499 0.65423900 5.98560905 0.000000
-0.55741900 0.89904499 4.92007017 0.000000
-0.50094497 0.50231099 5.02307415 0.000000
-0.50247401 0.49556601 5.00310993 0.000000
-0.50198901 0.46914399 5.00189590 0.000000
-0.50133502 0.49806300 5.01731014 0.000000
-0.67910701 0.45402899 5.00090885 0.000000
-0.67534101 0.43946999 4.99805212 0.000000
-0.68370301 0.48407999 4.97884798 0.000000
-0.68108499 0.47062001 4.98380709 0.000000
-0.49689299 0.46974400 5.04783583 0.000000
-0.49847099 0.45739600 5.03649378 0.000000
-0.48627800 0.45483899 5.08988810 0.000000
-0.49349901 0.47255099 5.06392908 0.000000
-0.49656200 0.45274499 5.04336786 0.000000
-0.69345802 0.42361400 5.06596279 0.000000
-0.68703401 0.41853601 5.05058622 0.000000
-0.68593401 0.46726900 5.03064919 0.000000
-0.69369501 0.44237599 5.06005096 0.000000
-0.69387901 0.42533299 5.06648779 0.000000
-0.67830598 0.43503901 5.02153111 0.000000
-0.75755697 0.10921300 6.15741301 0.000000
-0.73858702 0.11466300 6.17710781 0.000000
-0.94732100 0.22280900 6.00963879 0.000000
-0.94973397 0.22362600 6.01058102 0.000000
-0.95005399 0.22345400 5.97687101 0.000000
-0.74774402 0.10574200 6.12613010 0.000000
-0.76440299 0.10268000 6.14323092 0.000000
-0.75411600 0.10425600 6.13156700 0.000000
-0.75687599 0.09674600 6.10978079 0.000000
-0.76127201 0.09492500 6.11073303 0.000000
-0.89599299 0.18851601 6.00084782 0.000000
-0.91255200 0.20048399 5.99734783 0.000000
-0.91311300 0.19658899 5.97118807 0.000000
-0.91582298 0.20397601 6.00348616 0.000000
-0.93620998 0.21294700 5.96427393 0.000000
-0.76948398 0.10088800 6.43256807 0.000000
-0.76836598 0.09609000 6.42125702 0.000000
-1.03528500 0.15390500 6.25197887 0.000000
-0.79028201 0.10534700 6.44792700 0.000000
-1.01485705 0.15738900 6.27318621 0.000000
-0.55345500 0.55432302 5.85693789 0.000000
-0.74284798 0.53720099 5.83637190 0.000000
-0.55221498 0.57289898 5.87225199 0.000000
-0.74232399 0.54406101 5.85022116 0.000000
-0.53576398 0.62974000 5.92615986 0.000000
-0.53893399 0.64912403 5.92988205 0.000000
-0.74722499 0.58225501 5.92571592 0.000000
-0.54593903 0.46781501 5.77355194 0.000000
-0.56162602 0.47699699 5.75028181 0.000000
-0.73625201 0.49865001 5.70719910 0.000000
-0.72548503 0.49871701 5.67664194 0.000000
-0.55947602 0.49377999 5.77536297 0.000000
-0.73054302 0.51051801 5.72588205 0.000000
-0.72979701 0.50818801 5.71786213 0.000000
-0.70524502 0.10861800 6.07183599 0.000000
-0.70386702 0.11168100 6.09027910 0.000000
-0.91416699 0.19668500 5.94031382 0.000000
-0.90707999 0.19298901 5.94090080 0.000000
-0.74082899 0.09799000 6.08286619 0.000000
-0.72408301 0.10718700 6.08458805 0.000000
-0.74448198 0.09240900 6.06797981 0.000000
-0.72509801 0.11041500 6.09985399 0.000000
-0.73219699 0.10633300 6.09837914 0.000000
-0.84777498 0.15131900 5.99218082 0.000000
-0.86311102 0.17067800 5.96381283 0.000000
-0.92463601 0.20737800 5.95803404 0.000000
-0.53006899 0.71600401 5.96702814 0.000000
-0.51696199 0.75502300 6.00974989 0.000000
-0.73181099 0.64138502 5.98521996 0.000000
-0.52338499 0.50119299 5.28074217 0.000000
-0.52430302 0.52097100 5.23414898 0.000000
-0.52810901 0.51721102 5.25568199 0.000000
-0.68428802 0.46108899 5.22313309 0.000000
-0.68023401 0.47146800 5.23503923 0.000000
-0.68429297 0.46120000 5.22296286 0.000000
-0.50941902 0.49753299 5.24561882 0.000000
-0.52326500 0.53328598 5.20782709 0.000000
-0.68848199 0.46935400 5.20542192 0.000000
-0.67949998 0.50219101 5.20526505 0.000000
-0.52518100 0.40355101 4.97937822 0.000000
-0.53671700 0.44178101 4.92498016 0.000000
-0.51676702 0.42622000 4.98097706 0.000000
-0.53421599 0.39378700 4.96668196 0.000000
-0.51878399 0.43928200 4.96666098 0.000000
-0.63984299 0.42767599 4.93816185 0.000000
-0.64135200 0.40630299 4.96324492 0.000000
-0.66244102 0.41444600 4.99161720 0.000000
-0.63809901 0.43651801 4.92582607 0.000000
-0.66201502 0.41190800 4.99353600 0.000000
-0.50360698 0.45310399 4.99870777 0.000000
-0.51442999 0.46296099 4.96729803 0.000000
-0.52220899 0.47340900 4.94337893 0.000000
-0.51263100 0.47294199 4.96787024 0.000000
-0.51058799 0.46416599 4.97656584 0.000000
-0.67510998 0.46579000 4.97165108 0.000000
-0.64446402 0.45877200 4.91680908 0.000000
-0.67145002 0.42907500 4.99571609 0.000000
-0.64091098 0.44717601 4.91965294 0.000000
-0.65544999 0.45475700 4.94204283 0.000000
-0.56853300 0.46313301 4.81934881 0.000000
-0.56477600 0.43583900 4.83943176 0.000000
-0.57813799 0.41909900 4.83724308 0.000000
-0.57876301 0.42770800 4.83155823 0.000000
-0.55272001 0.37599200 4.90945911 0.000000
-0.55964297 0.43031600 4.85354185 0.000000
-0.56488800 0.38123801 4.87999487 0.000000
-0.59985203 0.39064899 4.88749981 0.000000
-0.58643699 0.38762301 4.87157202 0.000000
-0.60229403 0.43282500 4.84965897 0.000000
-0.59818000 0.38290200 4.89272785 0.000000
-0.47956800 0.45057100 5.12907600 0.000000
-0.47561601 0.45075700 5.14942884 0.000000
-0.48448601 0.45889100 5.11441517 0.000000
-0.48067701 0.44056401 5.11095381 0.000000
-0.70243698 0.46403399 5.09922886 0.000000
-0.70448601 0.44611999 5.10411692 0.000000
-0.70338702 0.42047399 5.09707308 0.000000
-0.48842999 0.47236601 5.09522295 0.000000
-0.49111500 0.48405501 5.09276676 0.000000
-0.49228600 0.48918101 5.09234524 0.000000
-0.48666900 0.46493801 5.10318899 0.000000
-0.70100302 0.45974100 5.09265804 0.000000
-0.69969797 0.44942999 5.08030796 0.000000
-0.69719499 0.49193200 5.06282806 0.000000
-0.70060998 0.45682600 5.08896112 0.000000
-0.60432100 0.55883199 5.30188179 0.000000
-0.63000202 0.54642099 5.31079578 0.000000
-0.61972499 0.57543898 5.27389479 0.000000
-0.59045500 0.56725001 5.27892399 0.000000
-0.59462398 0.57405603 5.27098894 0.000000
-0.63823801 0.56389600 5.27467918 0.000000
-0.63454300 0.56511599 5.27660704 0.000000
-0.49483299 0.47937000 5.24271822 0.000000
-0.49909699 0.49013799 5.23174620 0.000000
-0.69418001 0.50712198 5.18627596 0.000000
-0.70641899 0.45367900 5.19139290 0.000000
-0.51068097 0.53053200 5.16786480 0.000000
-0.49963200 0.50220197 5.20293903 0.000000
-0.69835103 0.49395299 5.18528986 0.000000
-0.69240099 0.52365202 5.17605400 0.000000
-0.54480898 0.51714599 5.29473686 0.000000
-0.54982799 0.52146500 5.29610586 0.000000
-0.66167098 0.50490701 5.27284384 0.000000
-0.66529399 0.51545697 5.25317907 0.000000
-0.54990703 0.54454201 5.25579596 0.000000
-0.54615802 0.54355299 5.24665880 0.000000
-0.54613602 0.54013699 5.25502920 0.000000
-0.66620100 0.53524899 5.23161793 0.000000
-0.67031300 0.54170001 5.20767498 0.000000
-0.55727297 0.52431202 5.30381918 0.000000
-0.56205797 0.53604501 5.29213285 0.000000
-0.65095401 0.53017700 5.28607416 0.000000
-0.64478803 0.54106301 5.30647421 0.000000
-0.56241298 0.55450302 5.26144123 0.000000
-0.55441499 0.52328497 5.30096483 0.000000
-0.65093100 0.56209803 5.24452114 0.000000
-0.54450202 0.39082000 4.93114185 0.000000
-0.53794301 0.40063399 4.95258713 0.000000
-0.54582900 0.40736899 4.91460800 0.000000
-0.61149400 0.38240099 4.92253685 0.000000
-0.62012601 0.40252700 4.92313814 0.000000
-0.60921502 0.37590700 4.92377615 0.000000
-0.62059402 0.40774399 4.91829395 0.000000
-0.54913902 0.39601400 4.90842581 0.000000
-0.55655700 0.44315401 4.85327911 0.000000
-0.54714400 0.41387501 4.90525484 0.000000
-0.55554700 0.43386701 4.86248016 0.000000
-0.61544901 0.41692400 4.89486313 0.000000
-0.60279000 0.39846301 4.88419485 0.000000
-0.60951602 0.41261801 4.88558388 0.000000
-0.60500300 0.43976301 4.84855986 0.000000
-0.61434299 0.41677099 4.89249277 0.000000
-0.47396201 0.45523199 5.19365692 0.000000
-0.46970600 0.44230500 5.20023918 0.000000
-0.47420001 0.45025799 5.21625185 0.000000
-0.71654099 0.38473299 5.19057083 0.000000
-0.71666598 0.39468399 5.18194818 0.000000
-0.46859100 0.43110099 5.24823809 0.000000
-0.47255501 0.44213900 5.24027205 0.000000
-0.47154999 0.44038200 5.25415611 0.000000
-0.46234399 0.41410300 5.26532602 0.000000
-0.71513999 0.40196401 5.19843817 0.000000
-0.71627998 0.38926700 5.19826508 0.000000
-0.49532300 0.39514199 5.06823683 0.000000
-0.49500200 0.40413699 5.06222916 0.000000
-0.48518601 0.42956200 5.09357023 0.000000
-0.48644501 0.41501701 5.09927607 0.000000
-0.48429900 0.42908099 5.09880209 0.000000
-0.49160701 0.42383099 5.06367922 0.000000
-0.67252898 0.38909200 5.03908205 0.000000
-0.68538100 0.40125901 5.06186819 0.000000
-0.66923302 0.37120101 5.04905081 0.000000
-0.67074502 0.37808701 5.04589176 0.000000
-0.66705298 0.33277401 5.08411598 0.000000
-0.67542201 0.37502700 5.06219912 0.000000
-0.67952299 0.36123800 5.08838987 0.000000
-0.49020401 0.36779699 5.11446190 0.000000
-0.48395601 0.36460301 5.13567114 0.000000
-0.47208601 0.36373401 5.17341518 0.000000
-0.47833100 0.38363501 5.14401293 0.000000
-0.47848299 0.36089000 5.15469885 0.000000
-0.69041300 0.36056900 5.11158514 0.000000
-0.67859101 0.34510201 5.09955215 0.000000
-0.67994303 0.35083300 5.09777689 0.000000
-0.69763100 0.35070300 5.13429594 0.000000
-0.69916701 0.40785101 5.09198523 0.000000
-0.71630901 0.58788598 5.05644703 0.000000
-0.49297500 0.60302103 5.07789898 0.000000
-0.71371400 0.57851303 5.06188917 0.000000
-0.49352899 0.64412802 5.04613113 0.000000
-0.71049702 0.64445102 5.03891420 0.000000
-0.48745099 0.63104898 5.02500677 0.000000
-0.70912898 0.64944798 5.02873516 0.000000
-0.48239899 0.57716799 4.98395491 0.000000
-0.70987201 0.57059503 4.94703817 0.000000
-0.71313000 0.57488900 4.99304008 0.000000
-0.48321000 0.60964400 4.96978617 0.000000
-0.71173501 0.61067301 4.95336914 0.000000
-0.48419300 0.60546303 4.92358398 0.000000
-0.70924699 0.59962499 4.92041779 0.000000
-0.63414103 0.61498398 5.14814615 0.000000
-0.62132800 0.66405302 5.11677599 0.000000
-0.63885701 0.65026301 5.11956215 0.000000
-0.67231399 0.59661102 5.12837076 0.000000
-0.66169798 0.59512001 5.13794994 0.000000
-0.66999400 0.64264101 5.11290216 0.000000
-0.67614698 0.64297599 5.11124992 0.000000
-0.69121099 0.55015898 4.88958120 0.000000
-0.69426501 0.55065000 4.91290712 0.000000
-0.48099801 0.57862598 4.87093210 0.000000
-0.70931399 0.58819902 4.87283897 0.000000
-0.70853800 0.59715199 4.83885479 0.000000
-0.58681202 0.50551099 4.75936699 0.000000
-0.59722000 0.47655299 4.74537086 0.000000
-0.65177703 0.60261899 5.14506292 0.000000
-0.64302099 0.60433602 5.15243196 0.000000
-0.65101701 0.63821900 5.12247992 0.000000
-0.54003698 0.50626200 4.79604292 0.000000
-0.64265800 0.50459898 4.79314518 0.000000
-0.53855801 0.49086699 4.81262302 0.000000
-0.63191199 0.48927000 4.80908108 0.000000
-0.53825301 0.55543500 4.79224205 0.000000
-0.64296502 0.55421501 4.78828621 0.000000
-0.54327202 0.57731903 4.79056787 0.000000
-0.51808703 0.59584802 5.11924601 0.000000
-0.70078200 0.60199797 5.10424519 0.000000
-0.67751300 0.59511101 5.12361002 0.000000
-0.69021702 0.63203597 5.10940695 0.000000
-0.51297200 0.66008699 5.09211397 0.000000
-0.67889500 0.66362703 5.09749794 0.000000
-0.48521000 0.56283301 4.92212391 0.000000
-0.48236099 0.56526798 4.95183277 0.000000
-0.48141101 0.58943599 4.89216805 0.000000
-0.70890802 0.60096502 4.91413212 0.000000
-0.48163000 0.59328002 4.88087797 0.000000
-0.48817500 0.58205098 5.01723194 0.000000
-0.48694301 0.58969998 5.03352404 0.000000
-0.71366102 0.57042402 5.01918316 0.000000
-0.48663300 0.63013798 5.00500822 0.000000
-0.71428400 0.61423802 4.98095608 0.000000
-0.48471400 0.61978602 4.97558594 0.000000
-0.71078300 0.63313103 4.98197603 0.000000
-0.61637700 0.49502200 4.75719976 0.000000
-0.56593198 0.49197200 4.76445389 0.000000
-0.61410803 0.47884700 4.74797297 0.000000
-0.63541198 0.57468802 4.78729391 0.000000
-0.57082301 0.56615901 4.78090620 0.000000
-0.48096099 0.58606702 4.83475494 0.000000
-0.49341899 0.58551800 4.80960512 0.000000
-0.48189101 0.54257298 4.88296223 0.000000
-0.68485600 0.53793103 4.84954214 0.000000
-0.49632701 0.53039300 4.84728098 0.000000
-0.67294699 0.53236502 4.85537577 0.000000
-0.67601699 0.56033802 4.80155182 0.000000
-0.52145302 0.57281297 4.79731607 0.000000
-0.66479599 0.56377703 4.79580498 0.000000
-0.66353101 0.51718700 4.81592417 0.000000
-0.52721000 0.50487202 4.81222296 0.000000
-0.50083500 0.59509301 5.09465122 0.000000
-0.70566100 0.59893399 5.09675980 0.000000
-0.70156002 0.58257902 5.09748316 0.000000
-0.50216401 0.63799101 5.08883476 0.000000
-0.70299202 0.64578700 5.08217716 0.000000
-0.50189698 0.64960402 5.07414579 0.000000
-0.62720299 0.86902100 4.86765099 0.000000
-0.51892799 0.72687399 4.94646120 0.000000
-0.67183101 0.72669899 4.94165421 0.000000
-0.52332902 0.74545801 4.96698284 0.000000
-0.53562599 0.76409799 5.00537682 0.000000
-0.66058600 0.76273203 5.00186586 0.000000
-0.65510601 0.76086402 5.02097321 0.000000
-0.67272198 0.71415597 4.91816092 0.000000
-0.51864600 0.72239602 4.92573500 0.000000
-0.58687699 0.83034402 4.84464216 0.000000
-0.60024899 0.81350398 4.84094810 0.000000
-0.58781302 0.54076898 5.32046509 0.000000
-0.63221598 0.53969401 5.33980703 0.000000
-0.62937897 0.54104602 5.33670378 0.000000
-0.60399699 0.53778303 5.34658909 0.000000
-0.55273497 0.21713699 5.12738705 0.000000
-0.58043802 0.20580000 5.13718796 0.000000
-0.55227000 0.20772400 5.13384819 0.000000
-0.58323699 0.19782700 5.15161085 0.000000
-0.60987902 0.60306603 4.78692389 0.000000
-0.60972798 0.62445801 4.79084396 0.000000
-0.60911000 0.78678799 5.02662611 0.000000
-0.59785801 0.79643101 5.02034092 0.000000
-0.58995402 0.84614199 4.99308681 0.000000
-0.59186000 0.87291199 4.97696686 0.000000
-0.60789597 0.83959103 4.99507713 0.000000
-0.57126498 0.60563201 5.05767918 0.000000
-0.58411002 0.61054498 5.08587503 0.000000
-0.62783003 0.60981703 5.09749079 0.000000
-0.59734797 0.60703403 5.07443380 0.000000
-0.59912097 0.61181998 5.09592295 0.000000
-0.61839402 0.61014199 5.08612013 0.000000
-0.58512402 0.69267201 5.08679485 0.000000
-0.60993600 0.70371503 5.07944107 0.000000
-0.59342700 0.71721202 5.07077408 0.000000
-0.61729300 0.72850001 5.06011915 0.000000
-0.60692000 0.57054698 4.78089380 0.000000
-0.59120798 0.57708299 4.78408098 0.000000
-0.59687603 0.54794502 4.78154278 0.000000
-0.59942502 0.61976600 5.15854311 0.000000
-0.58457297 0.89544600 4.88067913 0.000000
-0.57704097 0.74018502 5.05482912 0.000000
