-0.43748000 0.25576800 3.08264208 0.000000
-0.50782901 0.20360699 3.23304105 0.000000
-0.37103099 0.15923899 3.38745594 0.000000
-0.49848300 0.18567000 3.23624802 0.000000
-0.31557801 0.20524999 3.36885095 0.000000
-0.49439600 0.23933700 3.17396593 0.000000
-0.31514499 0.22247900 3.36101794 0.000000
-0.50851899 0.23897600 3.19702101 0.000000
-0.01155500 -0.07016600 2.87389708 0.000000
0.09893300 0.10201200 2.29715109 0.000000
0.10436400 0.11326300 2.30702996 0.000000
-0.13559100 0.00556800 2.42349601 0.000000
0.10463700 -0.07196800 2.15204501 0.000000
-0.15122700 -0.14546300 2.18241191 0.000000
-0.16155700 -0.14815301 2.19115400 0.000000
0.10213400 -0.06425700 2.14644098 0.000000
-0.16893201 -0.14344700 2.19126701 0.000000
-0.06773100 0.08454100 1.82291305 0.000000
-0.15661100 -0.04492300 1.98180103 0.000000
-0.16037200 -0.01532100 1.97122502 0.000000
0.10238200 0.12344600 2.28922701 0.000000
0.10125400 0.13100401 2.27687907 0.000000
0.10413700 0.14710400 2.27335405 0.000000
-0.09650300 0.51895702 2.77460599 0.000000
-0.20426799 0.51900703 2.68248391 0.000000
-0.11261100 0.53370601 2.77448106 0.000000
-0.10544700 0.50692397 2.81858611 0.000000
-0.12765600 0.54156899 2.88245893 0.000000
-0.23088101 0.53143299 2.75244999 0.000000
-0.12595899 0.55422097 2.88642406 0.000000
-0.23726100 0.55188602 2.76919603 0.000000
-0.07539500 0.47164500 2.67886901 0.000000
-0.18553300 0.47396299 2.61135793 0.000000
-0.07237900 0.45993400 2.65159607 0.000000
-0.08526900 0.39578500 2.72208309 0.000000
-0.17885900 0.38633299 2.64576888 0.000000
-0.17763200 0.38837099 2.64823294 0.000000
-0.17780399 0.39610499 2.65844893 0.000000
-0.16552401 0.50026399 2.83496809 0.000000
-0.18164600 0.50159699 2.76973605 0.000000
-0.16717499 0.50775301 2.84722590 0.000000
-0.16551100 0.51559502 2.86432409 0.000000
-0.19908699 0.50801098 2.78006506 0.000000
-0.17608900 0.55745298 2.80889893 0.000000
-0.17077500 0.53074002 2.78138590 0.000000
-0.13457300 0.51236999 2.74548006 0.000000
-0.17230999 0.54048598 2.71100092 0.000000
-0.14610900 0.53724599 2.77645493 0.000000
-0.17408900 0.55556101 2.73006797 0.000000
-0.10180100 0.52653301 2.79889011 0.000000
-0.10950600 0.54734099 2.82968402 0.000000
-0.23218299 0.57442802 2.75444388 0.000000
-0.11802700 0.56064898 2.87161708 0.000000
-0.11817200 0.55848402 2.87404895 0.000000
-0.23884600 0.57348400 2.76543903 0.000000
-0.10952900 0.48371899 2.81161690 0.000000
-0.11036600 0.49032801 2.81581807 0.000000
-0.12952100 0.43006301 2.69602704 0.000000
-0.14654100 0.43254900 2.66342402 0.000000
-0.10380500 0.40102401 2.67630601 0.000000
-0.15108800 0.40597501 2.63057399 0.000000
-0.03641100 0.44957000 2.68365788 0.000000
-0.21672601 0.45257699 2.61600590 0.000000
-0.04356200 0.44678900 2.71011710 0.000000
-0.08444600 0.40116701 2.61195302 0.000000
-0.08194800 0.40241900 2.60555601 0.000000
-0.13865900 0.42686900 2.60204291 0.000000
-0.13932601 0.43241501 2.61133599 0.000000
-0.08766600 0.39700401 2.62248898 0.000000
-0.14152700 0.40673599 2.60102606 0.000000
-0.14362700 0.41757700 2.62083411 0.000000
-0.01856600 0.45304301 2.62947798 0.000000
-0.02781700 0.45286101 2.65881491 0.000000
-0.21344100 0.44168001 2.56531310 0.000000
-0.21652600 0.43070999 2.53879404 0.000000
-0.03231500 0.46100101 2.63116407 0.000000
-0.20339800 0.45687500 2.58936691 0.000000
-0.20246799 0.45413899 2.57851505 0.000000
-0.07596600 0.37474000 2.68180990 0.000000
-0.18110099 0.36434400 2.61545205 0.000000
-0.18011700 0.37539199 2.63108110 0.000000
-0.04328400 0.34542000 2.63125706 0.000000
-0.18699899 0.36263701 2.61441803 0.000000
-0.05356800 0.44283801 2.60405493 0.000000
-0.15740500 0.43265301 2.54809499 0.000000
-0.15550700 0.43346599 2.55498505 0.000000
-0.08009600 0.44444799 2.63207603 0.000000
-0.15034400 0.44400799 2.58992600 0.000000
-0.15491199 0.44135800 2.57537007 0.000000
-0.01107100 0.37496400 2.65981007 0.000000
-0.22091500 0.37095299 2.58917093 0.000000
-0.02865100 0.39732799 2.68778992 0.000000
-0.02875300 0.38901100 2.68322802 0.000000
-0.22208400 0.38449800 2.60280991 0.000000
-0.13882300 0.11965700 3.04218006 0.000000
-0.35282999 0.13667899 2.87842989 0.000000
-0.36877799 0.12401900 2.86783791 0.000000
-0.20183100 0.19197500 3.15955400 0.000000
-0.18358099 0.18690801 3.10118890 0.000000
-0.20811900 0.20936500 3.13474393 0.000000
-0.42135701 0.21134099 2.95438194 0.000000
-0.40162101 0.22121800 2.94964290 0.000000
-0.43506199 0.20633900 2.95946908 0.000000
-0.18538700 0.17009400 3.14621496 0.000000
-0.18536100 0.16616300 3.15493488 0.000000
-0.18913899 0.18171000 3.13485408 0.000000
-0.17918199 0.15933000 3.14605594 0.000000
-0.17926501 0.16712099 3.12890196 0.000000
-0.41211501 0.17306300 2.91141200 0.000000
-0.44462600 0.18885601 2.95009494 0.000000
-0.43622801 0.16510700 2.92184401 0.000000
-0.43420699 0.19026700 2.94370699 0.000000
-0.41305801 0.19109100 2.92884493 0.000000
-0.33260500 0.37283701 3.60421395 0.000000
-0.18970799 0.17647600 3.07066393 0.000000
-0.22210500 0.18709700 3.06489706 0.000000
-0.18594100 0.17629400 3.07299995 0.000000
-0.35762799 0.15618999 2.89106297 0.000000
-0.36558199 0.16126201 2.89198899 0.000000
-0.36220300 0.16942701 2.90226507 0.000000
-0.18763600 0.15405400 3.04141808 0.000000
-0.35267299 0.15076900 2.88905406 0.000000
-0.24808399 0.10699600 3.00386000 0.000000
-0.25909600 0.11147000 3.01655889 0.000000
-0.26528400 0.08270700 2.99680400 0.000000
-0.28024501 0.10297600 2.96681190 0.000000
-0.34072900 0.18785299 3.39159894 0.000000
-0.51252300 0.21690799 3.21615005 0.000000
-0.31932700 0.19613101 3.37217999 0.000000
-0.50564998 0.20775400 3.20707011 0.000000
-0.02928600 -0.16045401 2.80683398 0.000000
-0.04082000 -0.17084999 2.78919506 0.000000
-0.28979799 -0.14589900 2.70151401 0.000000
-0.27991101 -0.15204000 2.69863701 0.000000
-0.05008400 0.35702801 2.56653905 0.000000
-0.14062899 0.35628799 2.53016496 0.000000
-0.14033200 0.35949200 2.53346705 0.000000
-0.05208900 0.37675700 2.55614805 0.000000
-0.13545600 0.39488000 2.54752707 0.000000
-0.10556500 0.41716501 2.65724492 0.000000
-0.14053699 0.44295901 2.65762496 0.000000
-0.13168100 0.44986701 2.69059610 0.000000
-0.13967501 0.44947499 2.65724802 0.000000
-0.18603800 0.52607101 2.82571411 0.000000
-0.06690000 0.42650700 2.59490705 0.000000
-0.06198500 0.42536801 2.58778000 0.000000
-0.13934299 0.41147000 2.55123591 0.000000
-0.14822300 0.42818099 2.55655408 0.000000
-0.08904000 0.41923901 2.61602402 0.000000
-0.13758899 0.41573900 2.56914997 0.000000
-0.02950200 0.40628499 2.69280505 0.000000
-0.02710800 0.40252301 2.68931890 0.000000
-0.23419300 0.38950700 2.57177091 0.000000
-0.00200700 0.40457299 2.66330194 0.000000
-0.22598401 0.41258401 2.61634994 0.000000
-0.48792300 0.03072600 2.95956492 0.000000
-0.48247701 0.05789200 2.95564103 0.000000
-0.17036600 0.04700300 3.14714193 0.000000
-0.16539900 0.04664500 3.14023995 0.000000
-0.46254599 0.07324500 2.91731095 0.000000
-0.47470900 0.06143200 2.93923092 0.000000
-0.46129701 0.07470100 2.91516709 0.000000
-0.46600500 0.06805500 2.92273593 0.000000
-0.26426199 0.08301900 3.23350596 0.000000
-0.27593100 0.06580900 3.23406196 0.000000
-0.27739099 0.06923300 3.23597503 0.000000
-0.47769499 0.10911000 3.04069805 0.000000
-0.47967699 0.07906000 3.04553795 0.000000
-0.48150799 0.09648200 3.02602410 0.000000
-0.24631999 0.09255800 3.22660589 0.000000
-0.27213401 0.08877200 3.23952007 0.000000
-0.24372500 0.09184600 3.22499800 0.000000
-0.23483901 0.08139800 3.21722388 0.000000
-0.47523999 0.11451800 3.05416203 0.000000
-0.47686899 0.12878001 3.05120111 0.000000
-0.47900900 0.15244600 3.04914403 0.000000
-0.47323701 0.12893300 3.06966710 0.000000
-0.35864100 0.12502500 3.25235009 0.000000
-0.34980801 0.11686900 3.25747800 0.000000
-0.43559101 0.10884800 3.11366391 0.000000
-0.42588899 0.13178299 3.13237906 0.000000
-0.33103099 0.08161900 3.22252798 0.000000
-0.35468301 0.10788600 3.22143006 0.000000
-0.33918399 0.08548900 3.20957804 0.000000
-0.40643701 0.10571900 3.10929108 0.000000
-0.42018700 0.10462400 3.10897589 0.000000
-0.41200501 0.09215700 3.09850192 0.000000
-0.32402700 0.05538400 3.15913010 0.000000
-0.34072000 0.07727900 3.18348908 0.000000
-0.32622400 0.07748600 3.22534800 0.000000
-0.31225401 0.04688000 3.16469407 0.000000
-0.40737501 0.04020900 3.06063604 0.000000
-0.40876701 0.07818200 3.08815694 0.000000
-0.39978501 0.07608600 3.08614612 0.000000
-0.29596001 0.04498800 3.17962289 0.000000
-0.30393901 0.05425500 3.19391894 0.000000
-0.30381200 0.05355000 3.19234204 0.000000
-0.43763599 0.05582500 3.06183100 0.000000
-0.43390301 0.06130800 3.06944394 0.000000
-0.28329900 0.12396200 3.26013589 0.000000
-0.28188401 0.12694100 3.26048803 0.000000
-0.29227600 0.10674800 3.25866389 0.000000
-0.28711399 0.11278000 3.25778008 0.000000
-0.47257799 0.15230501 3.09004211 0.000000
-0.47373700 0.14712299 3.07889009 0.000000
-0.25671300 0.13303900 3.24578595 0.000000
-0.28035599 0.14114000 3.27015805 0.000000
-0.28725600 0.14175200 3.27580094 0.000000
-0.47342601 0.15828000 3.09599090 0.000000
-0.47603899 0.16330400 3.08911300 0.000000
-0.13990000 0.11040200 3.07811999 0.000000
-0.13716801 0.10015000 3.08188391 0.000000
-0.13699099 0.10718100 3.07094193 0.000000
-0.13383000 0.11299300 3.04960108 0.000000
-0.42383701 0.12048800 2.88509202 0.000000
-0.40091801 0.10951600 2.86483693 0.000000
-0.39006299 0.12515500 2.86818910 0.000000
-0.14903399 0.10666400 3.11355305 0.000000
-0.14368300 0.09080800 3.10596108 0.000000
-0.13464500 0.08860200 3.08333707 0.000000
-0.14336200 0.10518300 3.09939599 0.000000
-0.43357301 0.09272200 2.88149095 0.000000
-0.42973000 0.10197000 2.88156199 0.000000
-0.44995701 0.14543800 2.91682100 0.000000
-0.48695499 0.04701300 2.96613312 0.000000
-0.49327099 0.00980000 2.98283911 0.000000
-0.48677999 0.04656800 2.96391296 0.000000
-0.21689400 -0.00219000 3.18435407 0.000000
-0.22523899 -0.00357500 3.18925309 0.000000
-0.49178201 0.02539500 2.99483609 0.000000
-0.49335301 0.01628700 2.99403000 0.000000
-0.49502701 0.00833400 3.01570010 0.000000
-0.49297801 0.01853300 2.99513507 0.000000
-0.17904399 0.10494900 3.15965009 0.000000
-0.19592901 0.05300400 3.17989898 0.000000
-0.21251500 0.08279700 3.19729495 0.000000
-0.19625200 0.06997500 3.17973208 0.000000
-0.19621100 0.06653000 3.17979288 0.000000
-0.17492700 0.09966600 3.15526700 0.000000
-0.46131101 0.13056800 2.93855810 0.000000
-0.47777301 0.09862100 2.97418094 0.000000
-0.46134999 0.13674200 2.94677901 0.000000
-0.47173700 0.11431300 2.96630406 0.000000
-0.47210500 0.11172600 2.96465802 0.000000
-0.46102601 0.12729900 2.93296409 0.000000
-0.16176599 0.10436200 3.13799405 0.000000
-0.14557201 0.07431300 3.11548209 0.000000
-0.16821100 0.06747700 3.14547205 0.000000
-0.16999599 0.10411400 3.14896488 0.000000
-0.15731101 0.06231300 3.13077593 0.000000
-0.46565700 0.11498400 2.93878508 0.000000
-0.47483999 0.08066800 2.94720697 0.000000
-0.45195201 0.11941400 2.91074109 0.000000
-0.46850401 0.08082800 2.93361497 0.000000
-0.46271601 0.11047300 2.93096089 0.000000
-0.18854301 0.13909800 3.17092299 0.000000
-0.17783201 0.14226501 3.15721202 0.000000
-0.20366199 0.13877299 3.18931794 0.000000
-0.19735099 0.16435599 3.17574191 0.000000
-0.21786401 0.14141899 3.20591092 0.000000
-0.20474900 0.16907699 3.18361092 0.000000
-0.45958799 0.17064300 2.97132802 0.000000
-0.47296599 0.16745700 3.01592112 0.000000
-0.46022600 0.15530001 2.95587707 0.000000
-0.45225400 0.19247000 2.97011089 0.000000
-0.45598301 0.17938100 2.96842599 0.000000
-0.45113501 0.18821000 2.96114492 0.000000
-0.21910299 0.11763700 3.20731807 0.000000
-0.18193300 0.12842800 3.16314912 0.000000
-0.21541400 0.12792601 3.20376396 0.000000
-0.22608900 0.11934700 3.21595597 0.000000
-0.19955499 0.12483100 3.18422604 0.000000
-0.20654300 0.09760200 3.19025993 0.000000
-0.47550300 0.13740700 3.00185990 0.000000
-0.47672299 0.16060700 3.02223706 0.000000
-0.46463299 0.15240701 2.97065592 0.000000
-0.46651500 0.13100401 2.96330595 0.000000
-0.46084100 0.15200201 2.95594692 0.000000
-0.45797801 0.15222999 2.94520497 0.000000
-0.28260300 0.03677900 3.19216204 0.000000
-0.27329600 0.02646000 3.20497990 0.000000
-0.45783100 0.04113200 3.06022501 0.000000
-0.26785299 0.00428600 3.18366289 0.000000
-0.26828301 0.02068600 3.20168400 0.000000
-0.48972899 0.02812200 3.02695608 0.000000
-0.47919700 0.04155100 3.04597211 0.000000
-0.28084499 0.05683800 3.22230697 0.000000
-0.28103000 0.05676600 3.22174692 0.000000
-0.46084601 0.07798100 3.06788993 0.000000
-0.47071201 0.10905500 3.07973504 0.000000
-0.30707401 0.07934800 3.23366690 0.000000
-0.29508001 0.06868500 3.22028589 0.000000
-0.45198801 0.08227600 3.07585096 0.000000
-0.44615099 0.08589900 3.08571792 0.000000
-0.33923200 0.13026699 3.29759789 0.000000
-0.45698401 0.14493901 3.15912890 0.000000
-0.33338901 0.12261500 3.28361392 0.000000
-0.46371901 0.15274800 3.14402103 0.000000
-0.39036101 0.16314600 3.40385103 0.000000
-0.38730901 0.17157599 3.41112399 0.000000
-0.49635601 0.18192300 3.26294994 0.000000
-0.40266299 0.24537399 3.46729898 0.000000
-0.38968700 0.24468100 3.46918797 0.000000
-0.50599402 0.27829701 3.33574104 0.000000
-0.53346699 0.36762699 3.43835497 0.000000
-0.41791499 0.34264600 3.58934307 0.000000
-0.36872101 0.18259400 3.40984607 0.000000
-0.37260699 0.18253399 3.41225910 0.000000
-0.50215203 0.19061200 3.25323606 0.000000
-0.35690299 0.18504600 3.40422797 0.000000
-0.51463300 0.22047600 3.25171804 0.000000
-0.36159801 0.24974400 3.46197605 0.000000
-0.51717001 0.28146899 3.32109404 0.000000
-0.53018302 0.30509999 3.33257794 0.000000
-0.38532200 0.23349801 3.45455289 0.000000
-0.51065898 0.26007101 3.30193305 0.000000
-0.50866199 0.25571799 3.29996991 0.000000
0.05718900 0.38559100 2.52959895 0.000000
-0.21693300 0.35850301 2.45199895 0.000000
0.03164400 0.39026001 2.50871205 0.000000
-0.17741700 0.36092401 2.44416189 0.000000
-0.00032000 0.38512701 2.49164605 0.000000
0.04698700 0.39493299 2.59444904 0.000000
-0.24051701 0.36827001 2.50341201 0.000000
-0.23786500 0.35776401 2.48838210 0.000000
0.00189000 0.40653101 2.65836096 0.000000
-0.23343299 0.40093800 2.57744098 0.000000
-0.02394400 0.43286899 2.68355203 0.000000
-0.01502100 0.42927700 2.67219996 0.000000
-0.22867000 0.42315799 2.57989812 0.000000
-0.22547001 0.44198999 2.63577700 0.000000
-0.22359200 0.44717899 2.63093901 0.000000
-0.22684300 0.45417601 2.65984988 0.000000
-0.07089800 0.47037601 2.75931001 0.000000
-0.07388500 0.47688800 2.76178098 0.000000
-0.25107399 0.59433401 2.82686806 0.000000
-0.16520700 0.54127097 2.89595890 0.000000
-0.15815100 0.54594702 2.90118003 0.000000
-0.33348399 0.40492100 3.56248808 0.000000
-0.33704001 0.38542101 3.56342006 0.000000
-0.51396799 0.43270999 3.37157393 0.000000
-0.33843601 0.37546799 3.59300590 0.000000
-0.54637402 0.43037400 3.39175701 0.000000
-0.31231099 0.39587900 3.58086801 0.000000
-0.53817499 0.44765800 3.37134695 0.000000
-0.53984398 0.45500100 3.36850691 0.000000
-0.36992699 0.41124901 3.54764199 0.000000
-0.48340699 0.44387400 3.38993406 0.000000
-0.34466800 0.40089500 3.56175590 0.000000
-0.50993103 0.44480199 3.37701106 0.000000
-0.50142002 0.43424499 3.38204098 0.000000
-0.50160700 0.45139900 3.36555290 0.000000
-0.50936198 0.47176999 3.36065412 0.000000
-0.31857899 0.38596600 3.59045410 0.000000
-0.55496299 0.42128900 3.40475893 0.000000
-0.48265201 0.44248101 3.41507006 0.000000
-0.38477600 0.41748399 3.55018091 0.000000
-0.38593599 0.41847900 3.54803491 0.000000
-0.47262600 0.47552201 3.38080502 0.000000
-0.48134601 0.47002900 3.39157295 0.000000
-0.11348500 0.12845001 2.04911709 0.000000
-0.11394000 0.13459200 2.05910492 0.000000
-0.04724900 0.12820500 2.04014397 0.000000
0.04647000 -0.02590100 1.99850297 0.000000
-0.14862201 -0.09168700 2.04651499 0.000000
-0.15513600 -0.07340700 2.05064392 0.000000
-0.12975200 0.11340400 2.05728698 0.000000
-0.12449600 0.12436900 2.07604694 0.000000
0.01960100 -0.12920700 2.01888895 0.000000
0.03004600 -0.11710300 2.01165509 0.000000
-0.08939900 -0.15141401 2.04043293 0.000000
-0.01233400 0.12660900 2.01899099 0.000000
-0.02607200 0.12501401 2.04181910 0.000000
-0.04743800 -0.03556200 1.88396394 0.000000
-0.03069200 -0.00182300 1.90192997 0.000000
-0.10127900 -0.05066200 1.88266098 0.000000
-0.14578301 -0.02196600 1.94240797 0.000000
-0.07804200 0.09563600 1.83078396 0.000000
-0.14080000 0.08985800 1.85766697 0.000000
-0.08281800 0.09992600 1.84263897 0.000000
-0.09877000 0.09898200 1.82766700 0.000000
-0.15589200 0.07944900 1.89263499 0.000000
-0.06779100 0.11370200 1.93540204 0.000000
-0.15215500 0.08814600 1.94020998 0.000000
-0.07691700 0.09987100 1.84803605 0.000000
-0.08971400 0.09371300 1.81377399 0.000000
-0.13584401 0.08183300 1.80948997 0.000000
-0.15494800 0.08756900 1.91389596 0.000000
-0.16043501 0.07966900 1.90402102 0.000000
-0.15656500 0.07305400 1.95281899 0.000000
-0.05229400 0.11237600 1.98787796 0.000000
-0.05558600 0.12319200 2.00546408 0.000000
-0.14641200 0.08833000 2.00463796 0.000000
-0.06016000 0.11878400 1.96974897 0.000000
-0.15847801 0.08646700 1.95454097 0.000000
-0.15761000 0.07856100 1.88496995 0.000000
-0.09769200 0.08945200 1.81213796 0.000000
-0.07294400 0.09837100 1.84137595 0.000000
-0.09134900 0.08623500 1.80375195 0.000000
-0.16392700 0.06719400 1.82872903 0.000000
-0.09273400 0.16433300 2.07635593 0.000000
-0.09546800 0.17090800 2.08265305 0.000000
0.06928700 -0.03122900 2.49974489 0.000000
0.09482700 0.07706000 2.57411408 0.000000
-0.17748401 0.55797601 2.90527701 0.000000
-0.11110300 0.45243499 2.78991795 0.000000
-0.20370001 0.45627600 2.72257209 0.000000
-0.12693299 0.44429499 2.78024411 0.000000
-0.07162800 0.38099799 2.69946003 0.000000
-0.19059400 0.37644500 2.63412809 0.000000
-0.06505400 0.38664401 2.70528412 0.000000
-0.14639200 0.49038199 2.83442211 0.000000
-0.14052200 0.47880101 2.81965208 0.000000
-0.21179600 0.52155799 2.78694510 0.000000
-0.15092701 0.52402800 2.87514806 0.000000
-0.22734401 0.56048799 2.82165909 0.000000
-0.21988100 0.55225003 2.81822991 0.000000
-0.19058800 0.32351300 2.56263900 0.000000
-0.46880400 0.16237400 3.21926594 0.000000
-0.40078801 0.17134900 3.36112094 0.000000
-0.45399499 0.17521900 3.22846794 0.000000
-0.33296800 0.25138399 3.30378389 0.000000
-0.42695501 0.25848201 3.18624902 0.000000
-0.33691901 0.25329399 3.31319594 0.000000
-0.45657000 0.27180201 3.17896295 0.000000
-0.37150100 0.24383099 3.31449199 0.000000
-0.42888799 0.25901800 3.19583392 0.000000
-0.39034900 0.23012300 3.31746793 0.000000
-0.41579700 0.23192701 3.21172309 0.000000
-0.40632901 0.19554900 3.35584688 0.000000
-0.41284800 0.18187000 3.39152193 0.000000
-0.45477599 0.19557300 3.26486897 0.000000
-0.48414001 0.17022800 3.24512601 0.000000
-0.47980699 0.17061099 3.25396991 0.000000
-0.32510900 0.21145800 3.39447498 0.000000
-0.51945502 0.25091800 3.23204994 0.000000
-0.34321100 0.19037899 3.39843011 0.000000
-0.51568699 0.21891800 3.23849201 0.000000
-0.40942001 0.25978300 3.46613193 0.000000
-0.48486099 0.28190699 3.33512306 0.000000
-0.40558499 0.22523500 3.44026303 0.000000
-0.47829100 0.24274500 3.30551505 0.000000
-0.17577200 -0.20609900 2.71375704 0.000000
0.07266600 -0.02942400 2.07633901 0.000000
-0.17180000 -0.10021100 2.13760090 0.000000
-0.15750299 -0.08944300 2.11396599 0.000000
0.07012100 -0.03294600 2.06966305 0.000000
-0.17200500 -0.10977600 2.14287710 0.000000
-0.07571700 -0.13627400 2.13964105 0.000000
-0.07864900 -0.11462800 2.14360809 0.000000
0.04077300 -0.03666700 2.08397102 0.000000
0.05385300 -0.06389800 2.10174489 0.000000
-0.07546900 0.11557600 1.95710099 0.000000
-0.07139900 0.11735200 1.97090304 0.000000
-0.12897500 0.10482600 1.97709894 0.000000
-0.05307800 0.11395900 1.95546103 0.000000
-0.14643300 0.09625000 1.98515904 0.000000
-0.16197200 0.06576900 1.97871006 0.000000
-0.01659200 0.08744400 1.96241903 0.000000
-0.16601500 0.04918400 1.97806394 0.000000
-0.16685501 -0.03302100 2.00285101 0.000000
0.01577700 0.02882300 1.96191800 0.000000
-0.16534300 -0.02543800 1.99124801 0.000000
-0.01819000 0.10940300 1.98337305 0.000000
-0.03617600 0.11486200 1.97749305 0.000000
-0.17075400 0.07888700 2.01829696 0.000000
-0.16328400 -0.04080400 1.99705100 0.000000
-0.16080800 -0.04522800 1.99305105 0.000000
0.04236600 -0.00317900 2.00319004 0.000000
0.04139300 0.00597800 2.00734806 0.000000
-0.16275600 -0.05429500 2.04897499 0.000000
-0.18267500 0.01424200 2.03730607 0.000000
-0.18401200 0.01497000 2.05053401 0.000000
0.00218500 0.07371100 1.97069299 0.000000
-0.17557000 0.02990500 2.00220799 0.000000
-0.17257600 0.01087200 1.99531496 0.000000
-0.05734700 0.08995500 1.86724699 0.000000
-0.16732199 0.05381400 1.88848495 0.000000
-0.16663100 0.04878400 1.89261103 0.000000
-0.00530100 0.05353100 1.94843698 0.000000
-0.16665700 0.01237900 1.97702599 0.000000
-0.16903900 0.02460800 1.98401105 0.000000
-0.03350600 -0.05630700 1.91178405 0.000000
-0.09183400 -0.07606900 1.91867495 0.000000
-0.01512600 -0.09285900 1.94363499 0.000000
0.01489600 -0.10130400 1.96508706 0.000000
0.01749800 -0.09320300 1.95446002 0.000000
-0.15454599 -0.08306900 2.00434804 0.000000
-0.14848900 -0.10509100 1.99504197 0.000000
-0.15663899 -0.05552900 1.98912799 0.000000
0.02075200 -0.00594700 1.95517004 0.000000
-0.00086300 0.01344200 1.93684494 0.000000
-0.03588500 0.01213200 1.88796699 0.000000
-0.06532500 -0.03045900 1.85861897 0.000000
-0.09758900 -0.04122600 1.86370099 0.000000
-0.09160800 -0.05737700 1.88826799 0.000000
-0.02477800 -0.05661800 1.91922402 0.000000
-0.03460900 -0.04152800 1.90414703 0.000000
-0.09107300 -0.08208300 1.92668605 0.000000
-0.09927500 -0.06252900 1.90367305 0.000000
-0.08371000 -0.09613400 1.93912399 0.000000
0.00533300 -0.08597700 1.94478405 0.000000
0.00880700 -0.07677500 1.94117904 0.000000
-0.11114500 -0.08658600 1.94690096 0.000000
-0.08984100 -0.12320300 1.96905100 0.000000
-0.09202500 -0.09192700 1.93760800 0.000000
-0.12774900 -0.05140400 1.95360899 0.000000
-0.12032600 -0.02632000 1.85355103 0.000000
-0.04402600 0.00453700 1.87334394 0.000000
-0.06744900 0.10212100 1.87070405 0.000000
-0.06178800 0.09744200 1.88413405 0.000000
-0.06023600 0.10043500 1.91358304 0.000000
-0.07109200 0.10257900 1.88169706 0.000000
-0.03859500 0.07025100 1.90982103 0.000000
-0.04767800 0.08364000 1.90210295 0.000000
-0.06185300 0.09069400 1.85053802 0.000000
-0.05904000 0.08850400 1.85545194 0.000000
-0.06929500 0.09983600 1.85675895 0.000000
-0.07006500 0.09988400 1.85025597 0.000000
-0.01732000 -0.16692901 2.05487394 0.000000
-0.00226400 -0.15649800 2.06345797 0.000000
-0.02629200 -0.10190300 1.94700098 0.000000
-0.03846600 -0.09247300 1.93513298 0.000000
-0.10781000 0.11262100 1.91068006 0.000000
-0.11791000 0.11098400 1.91257596 0.000000
-0.11636100 0.11293500 1.87037897 0.000000
-0.13162699 0.10812300 1.87277496 0.000000
-0.11285400 0.11257700 1.85285997 0.000000
-0.12109500 0.11113800 1.85405195 0.000000
-0.12048800 0.01118100 1.78633702 0.000000
-0.00801400 -0.13656799 2.00870705 0.000000
-0.04458100 -0.15727800 2.03612089 0.000000
0.01165200 -0.13119000 2.01426101 0.000000
-0.06885400 -0.15319300 2.02980089 0.000000
-0.09183700 -0.05065100 1.87779796 0.000000
-0.11422000 0.09291300 1.82245600 0.000000
-0.11344500 0.08550100 1.80841899 0.000000
-0.07830600 -0.07285600 1.90845799 0.000000
-0.08102200 -0.02968100 1.84671795 0.000000
-0.07849700 -0.07445000 1.91068602 0.000000
-0.07852600 -0.13275801 1.98223805 0.000000
-0.05753900 -0.07933200 1.91832101 0.000000
-0.07496400 -0.01815900 1.83662105 0.000000
-0.10182100 0.08002800 1.79285300 0.000000
0.05157200 -0.05326200 2.00531602 0.000000
-0.14739400 -0.10698500 2.03396797 0.000000
0.05053100 -0.07339900 2.00155807 0.000000
-0.13193300 -0.12067000 2.04714704 0.000000
-0.16163000 0.03441300 1.82730901 0.000000
-0.06247000 0.07324400 1.82208204 0.000000
-0.16942900 0.05060900 1.86180699 0.000000
-0.05204600 0.06450500 1.84291899 0.000000
-0.16434500 0.02968000 1.86231995 0.000000
-0.16068400 0.02194800 1.86181605 0.000000
-0.00187100 0.34819701 2.63386011 0.000000
0.00406200 0.34753001 2.62954593 0.000000
-0.21696199 0.33691099 2.55679989 0.000000
-0.14416200 0.54476398 2.89858389 0.000000
-0.23448700 0.57121998 2.82757306 0.000000
-0.12298100 0.50172198 2.83869791 0.000000
-0.13377400 0.51890302 2.86431599 0.000000
-0.23189500 0.53895998 2.78088903 0.000000
-0.08825200 -0.03103100 2.43284297 0.000000
-0.04399400 0.41343799 2.71257305 0.000000
-0.22257100 0.42735401 2.65899301 0.000000
-0.21739300 0.41158700 2.65081310 0.000000
-0.21058300 0.46582401 2.72836590 0.000000
-0.21434300 0.46710801 2.72394300 0.000000
-0.01762400 0.34830299 2.64415407 0.000000
-0.21206500 0.35375899 2.58361912 0.000000
-0.03761600 0.37299901 2.67637801 0.000000
-0.20690300 0.38243100 2.62581396 0.000000
0.03045700 -0.02374000 2.17692208 0.000000
0.03977800 -0.00917300 2.17971492 0.000000
0.02923300 -0.02605700 2.15023899 0.000000
-0.06243300 -0.03777600 2.19199896 0.000000
-0.07268200 -0.04178800 2.17870593 0.000000
-0.05725100 -0.05321400 2.17834091 0.000000
0.01887400 -0.04154700 2.17998004 0.000000
0.00936900 -0.05593500 2.12995291 0.000000
-0.04959000 -0.05973700 2.17291594 0.000000
-0.05873500 -0.05812500 2.16892290 0.000000
0.12392700 -0.12587100 2.19673300 0.000000
-0.13999900 -0.19898801 2.23063993 0.000000
0.01772000 -0.09767600 2.09567690 0.000000
-0.07661200 -0.11233200 2.12346196 0.000000
-0.07082800 -0.13232100 2.10023594 0.000000
-0.10814600 -0.12450500 2.10348797 0.000000
-0.13668001 -0.08898800 2.09517288 0.000000
-0.14913499 -0.20880599 2.23083806 0.000000
0.02142400 -0.07678100 1.94642794 0.000000
-0.14437400 -0.11253400 1.99239302 0.000000
0.03127100 -0.04245900 1.96197903 0.000000
0.01937000 -0.05486800 1.94783998 0.000000
0.03589700 -0.02609700 2.07408690 0.000000
0.03965600 -0.03564700 2.07285094 0.000000
-0.12347200 -0.09715700 2.11368799 0.000000
0.04246900 -0.02048500 2.05694389 0.000000
-0.15759000 -0.04150200 2.07575703 0.000000
-0.15447600 -0.06895300 2.09961009 0.000000
0.03367500 -0.00947000 2.05917692 0.000000
-0.34613401 0.11898400 3.13675189 0.000000
-0.32976201 0.12895600 3.10745597 0.000000
-0.35615200 0.11486900 3.15584803 0.000000
-0.33278200 0.11377400 3.10501695 0.000000
-0.32736200 0.10290500 3.05374694 0.000000
-0.33445999 0.11658400 3.05831409 0.000000
-0.33537501 0.11443600 3.06035209 0.000000
-0.33260801 0.10388000 3.09965491 0.000000
-0.33618701 0.05425500 3.10506511 0.000000
-0.34367400 0.07936800 3.12423301 0.000000
-0.34469801 0.07593200 3.12643600 0.000000
-0.33100301 0.08694500 3.09484196 0.000000
-0.33125901 0.09251200 3.05727291 0.000000
-0.33413601 0.07152200 3.05703211 0.000000
-0.33873600 0.08854100 3.06487894 0.000000
-0.33587399 0.07149700 3.05894494 0.000000
-0.40772399 0.24174701 3.36797094 0.000000
-0.43121600 0.25433400 3.24755502 0.000000
-0.41127199 0.20999099 3.36645699 0.000000
-0.42831099 0.22946300 3.24311304 0.000000
-0.40564901 0.33060101 3.47279096 0.000000
-0.41677400 0.34118301 3.49644804 0.000000
-0.47143701 0.33956501 3.33411598 0.000000
-0.40799600 0.35879999 3.49814510 0.000000
-0.47649500 0.37406299 3.35677195 0.000000
-0.38413000 0.18850900 3.28570890 0.000000
-0.38617501 0.20078300 3.30268788 0.000000
-0.41334799 0.20418200 3.19359493 0.000000
-0.36252201 0.21855500 3.25239491 0.000000
-0.39717799 0.20956200 3.16198397 0.000000
-0.39702401 0.19609401 3.16256309 0.000000
-0.48008099 0.41005301 3.42708397 0.000000
-0.42630100 0.22258800 3.23394299 0.000000
-0.39444801 0.22886799 3.32102394 0.000000
-0.33321601 0.02433200 3.07021093 0.000000
-0.32771799 0.03540500 3.06528711 0.000000
-0.32118201 0.04973600 3.05516005 0.000000
-0.32258299 0.07925400 3.07365203 0.000000
-0.31697100 0.05921700 3.05763507 0.000000
-0.34130499 0.05073900 3.06190300 0.000000
-0.32050100 0.07131000 3.04886699 0.000000
-0.16580901 0.03394400 1.84519100 0.000000
-0.06651000 -0.00673500 1.83378899 0.000000
-0.05454100 -0.00067500 1.85186100 0.000000
-0.11383800 -0.03663800 1.86817205 0.000000
0.04756600 -0.08421200 2.02655602 0.000000
-0.10901300 -0.13818400 2.05172205 0.000000
0.04857800 -0.08054300 2.01601410 0.000000
0.04587400 -0.08574700 2.01213098 0.000000
-0.11846000 -0.13577799 2.02882290 0.000000
-0.12356300 -0.13123199 1.99405503 0.000000
-0.11251100 -0.13260099 1.98881400 0.000000
0.03844000 -0.06730000 1.95646203 0.000000
-0.35237101 0.23276000 3.43661308 0.000000
-0.34766799 0.21415800 3.42447305 0.000000
-0.52086997 0.23899899 3.25277305 0.000000
-0.33349800 0.23720101 3.41661406 0.000000
-0.34880099 0.24994600 3.44423103 0.000000
-0.51971602 0.26330501 3.26674700 0.000000
-0.37157401 0.34055400 3.59353900 0.000000
-0.36286500 0.32495299 3.55270791 0.000000
-0.35996500 0.33274701 3.56087399 0.000000
-0.55265301 0.36589700 3.40143394 0.000000
-0.37063199 0.29615900 3.39604497 0.000000
-0.47463599 0.32309100 3.26547790 0.000000
-0.35787100 0.29267699 3.39368010 0.000000
-0.35427701 0.28538400 3.38051891 0.000000
-0.46680599 0.30514801 3.24340200 0.000000
-0.39285901 0.26725700 3.37011003 0.000000
-0.39333299 0.27939400 3.38714409 0.000000
-0.43727899 0.27145499 3.24897909 0.000000
-0.44578800 0.28834999 3.26686502 0.000000
-0.38403600 0.30566499 3.41651607 0.000000
-0.45954499 0.31021401 3.27011395 0.000000
-0.46682101 0.32189399 3.27439094 0.000000
-0.40757999 0.40104601 3.55228496 0.000000
-0.48677301 0.42139700 3.39762902 0.000000
-0.40362999 0.37977701 3.51401901 0.000000
-0.39902100 0.38182399 3.51407695 0.000000
-0.49203300 0.41013700 3.36685705 0.000000
-0.35483500 0.35725400 3.58480597 0.000000
-0.55071902 0.40982601 3.40546107 0.000000
-0.35285100 0.34140000 3.55574107 0.000000
-0.35502699 0.33602101 3.55826092 0.000000
-0.55398601 0.39117301 3.41101408 0.000000
-0.33038199 0.26161399 3.38495493 0.000000
-0.33255500 0.25750399 3.40391302 0.000000
-0.50672698 0.28643101 3.23611999 0.000000
-0.50373501 0.28161401 3.22742009 0.000000
-0.34118101 0.27561301 3.42990398 0.000000
-0.33601400 0.25389701 3.42366409 0.000000
-0.51145202 0.30441901 3.26003408 0.000000
-0.41282800 0.21821600 3.41482091 0.000000
-0.46462899 0.22625899 3.28955293 0.000000
-0.41538301 0.23701800 3.39400196 0.000000
-0.41594800 0.22652601 3.38802791 0.000000
-0.45604199 0.23989400 3.28592610 0.000000
-0.45697600 0.24027300 3.28691506 0.000000
-0.42726699 0.36616901 3.54500294 0.000000
-0.48092699 0.39388099 3.42496800 0.000000
-0.42408299 0.34915900 3.52986503 0.000000
-0.47779199 0.38315499 3.40365505 0.000000
-0.48508200 0.35521999 3.39266610 0.000000
-0.34708199 0.28719899 3.39389396 0.000000
-0.34559399 0.27896401 3.36926103 0.000000
-0.48757499 0.30232000 3.23636603 0.000000
-0.33930099 0.27644399 3.40375805 0.000000
-0.34237701 0.27769199 3.39001298 0.000000
-0.49091601 0.28481299 3.21456003 0.000000
-0.35126099 0.38167700 3.55937290 0.000000
-0.35081899 0.37352401 3.56226993 0.000000
-0.53710300 0.41540101 3.37852597 0.000000
-0.41711101 0.31452700 3.54737496 0.000000
-0.50966901 0.33006799 3.39578104 0.000000
-0.40376100 0.31764200 3.56685805 0.000000
-0.52433401 0.32679501 3.38829207 0.000000
-0.51733899 0.35278800 3.42481804 0.000000
-0.50109601 0.24402501 3.30315208 0.000000
-0.40302899 0.21509700 3.43954992 0.000000
-0.49221399 0.20714700 3.28542805 0.000000
-0.39209700 0.33109099 3.58737803 0.000000
-0.37867001 0.33137700 3.58214402 0.000000
-0.53724200 0.35617399 3.42461205 0.000000
-0.37760401 0.31049100 3.54723191 0.000000
-0.53666800 0.34385899 3.39709592 0.000000
-0.37274501 0.20776200 3.43125606 0.000000
-0.35385600 0.21603900 3.42895007 0.000000
-0.51835299 0.25384399 3.27777910 0.000000
-0.50979602 0.23345700 3.27872300 0.000000
-0.37998500 0.20550901 3.43254089 0.000000
-0.51240301 0.25623500 3.29236102 0.000000
-0.51819301 0.25952899 3.28353190 0.000000
-0.41847199 0.31429499 3.53677106 0.000000
-0.49782899 0.32658699 3.38248610 0.000000
-0.50278199 0.32379201 3.38608003 0.000000
-0.42643300 0.33789000 3.55937696 0.000000
-0.49315399 0.36925700 3.42372894 0.000000
-0.41127300 0.20179801 3.41446805 0.000000
-0.48276600 0.19843701 3.28819203 0.000000
-0.40550900 0.20862900 3.43154597 0.000000
-0.48776001 0.23771299 3.30762911 0.000000
-0.49694201 0.43476200 3.38630295 0.000000
-0.41137499 0.26340601 3.40502000 0.000000
-0.41297901 0.23440100 3.38049197 0.000000
-0.43449900 0.26372099 3.25336504 0.000000
-0.44402701 0.25801900 3.27468801 0.000000
-0.40216801 0.26586100 3.37885189 0.000000
-0.40493101 0.27579999 3.40355110 0.000000
-0.45199099 0.27756301 3.29113293 0.000000
-0.41840899 0.37964699 3.53284788 0.000000
-0.47877100 0.39955100 3.39109206 0.000000
-0.41522500 0.36701900 3.51524997 0.000000
-0.47610000 0.37334600 3.38459611 0.000000
-0.47862801 0.39455900 3.38275695 0.000000
0.00000800 0.44706699 2.59983110 0.000000
-0.21210800 0.42230600 2.51224089 0.000000
0.00411900 0.44032899 2.57616711 0.000000
0.00620200 0.44083300 2.58210611 0.000000
-0.19863300 0.43151101 2.51223111 0.000000
-0.20522800 0.40743500 2.48571610 0.000000
-0.05046100 0.39895201 2.55640888 0.000000
-0.05080600 0.41243100 2.56672001 0.000000
-0.13801800 0.39413100 2.52623010 0.000000
-0.04726800 0.38454300 2.54966211 0.000000
-0.13671100 0.39416799 2.53025198 0.000000
-0.04319800 0.34158701 2.61379695 0.000000
-0.04461800 0.34286001 2.61451006 0.000000
-0.16665199 0.32956699 2.55694604 0.000000
0.02746100 0.38467100 2.62554097 0.000000
-0.23390800 0.37366301 2.55745292 0.000000
0.02522500 0.37706000 2.62708402 0.000000
0.00965900 0.37537500 2.64376092 0.000000
-0.23217499 0.36213699 2.55605006 0.000000
-0.01804100 0.43032899 2.56559610 0.000000
-0.01890700 0.42083901 2.55278397 0.000000
-0.17080300 0.42701501 2.51522708 0.000000
0.00645900 0.42242801 2.54790306 0.000000
0.00932600 0.42872700 2.55601907 0.000000
-0.18192400 0.40217301 2.47855091 0.000000
-0.18854600 0.42388600 2.50642395 0.000000
-0.20688300 0.32635701 2.56125498 0.000000
-0.05292900 0.35763699 2.57396197 0.000000
-0.06681200 0.36892399 2.60034990 0.000000
-0.14112900 0.36722201 2.55223203 0.000000
-0.14909700 0.34530500 2.54583502 0.000000
0.03325900 0.41134101 2.60511208 0.000000
0.01442300 0.42771301 2.62159300 0.000000
-0.22722200 0.41781601 2.54282498 0.000000
0.03942900 0.41093501 2.59024191 0.000000
0.04106300 0.41075701 2.58603311 0.000000
-0.22713600 0.39586100 2.49007201 0.000000
-0.02181700 0.39253500 2.53339291 0.000000
-0.15400100 0.37753499 2.47632289 0.000000
-0.03270600 0.37528199 2.52911711 0.000000
-0.15351300 0.38726601 2.48811507 0.000000
-0.22808599 0.32612899 2.52605200 0.000000
-0.14147200 0.34667301 2.52377510 0.000000
0.03186400 0.39292899 2.62140894 0.000000
-0.23736900 0.38859600 2.54287291 0.000000
0.03400200 0.40069699 2.61353898 0.000000
-0.23979600 0.37948200 2.52395010 0.000000
-0.17014800 0.51833999 2.86319494 0.000000
-0.20387200 0.54881299 2.81953096 0.000000
-0.19857600 0.54869801 2.81797409 0.000000
-0.21492200 0.58121002 2.84517908 0.000000
-0.13038500 0.57027602 2.90947795 0.000000
-0.18274200 0.52720302 2.85500503 0.000000
-0.18368700 0.53662699 2.87240100 0.000000
-0.18682501 0.54649299 2.81175208 0.000000
-0.19343200 0.55113602 2.86992407 0.000000
-0.19552299 0.56076199 2.88342404 0.000000
-0.19078600 0.58018202 2.83395696 0.000000
-0.24364500 0.58055300 2.82067800 0.000000
-0.12615401 0.56198400 2.89340401 0.000000
-0.16686000 0.59918100 2.84577489 0.000000
-0.35753900 0.26573199 3.47153211 0.000000
-0.52848399 0.29976901 3.31204295 0.000000
-0.52758300 0.29464799 3.31816411 0.000000
-0.35790801 0.27778399 3.48453093 0.000000
-0.53522801 0.32234100 3.31570196 0.000000
-0.53151101 0.31021801 3.30719090 0.000000
-0.36530301 0.35338399 3.48423409 0.000000
-0.50575101 0.38482600 3.32954788 0.000000
-0.36793500 0.37686801 3.50834894 0.000000
-0.36227599 0.37759799 3.51235795 0.000000
-0.50112301 0.40200201 3.34798503 0.000000
-0.39578101 0.30250999 3.42056394 0.000000
-0.38479599 0.32328600 3.44026208 0.000000
-0.46151799 0.32197499 3.29777694 0.000000
-0.38952500 0.33417201 3.45853996 0.000000
-0.38403699 0.34165600 3.46642804 0.000000
-0.47334000 0.33430001 3.28403807 0.000000
-0.35411000 0.33401299 3.55112910 0.000000
-0.54326397 0.37283900 3.35129690 0.000000
-0.54188401 0.36596501 3.34764600 0.000000
-0.35349801 0.32110101 3.53447795 0.000000
-0.35062301 0.31728801 3.50763106 0.000000
-0.54447299 0.35736400 3.34970808 0.000000
-0.41222700 0.24728300 3.42625403 0.000000
-0.41229799 0.25403500 3.43481112 0.000000
-0.41198501 0.25933501 3.45714092 0.000000
-0.46822599 0.27247199 3.31210494 0.000000
-0.47220701 0.25872600 3.31043696 0.000000
-0.41365400 0.29054400 3.45774293 0.000000
-0.41342899 0.27185801 3.42151809 0.000000
-0.47842601 0.29062501 3.33384204 0.000000
-0.35271001 0.33441201 3.48367691 0.000000
-0.35404101 0.31558999 3.43819189 0.000000
-0.51231301 0.36515501 3.31216502 0.000000
-0.51913100 0.36078399 3.31394291 0.000000
-0.34894800 0.32452300 3.48301792 0.000000
-0.34860301 0.30491000 3.44054604 0.000000
-0.51119202 0.32554099 3.27631307 0.000000
-0.51587403 0.33364201 3.28722310 0.000000
-0.41039500 0.28907800 3.51353502 0.000000
-0.50671899 0.29057401 3.34870100 0.000000
-0.40935799 0.29255199 3.51845503 0.000000
-0.51363999 0.31312400 3.37296796 0.000000
-0.37408999 0.31014201 3.54522491 0.000000
-0.53037000 0.30919901 3.33994007 0.000000
-0.53691399 0.32964399 3.36583591 0.000000
-0.38686100 0.27656600 3.50565910 0.000000
-0.52291101 0.31262800 3.36483097 0.000000
-0.41956800 0.31244999 3.51032305 0.000000
-0.41484499 0.29470101 3.50185609 0.000000
-0.49793100 0.32130599 3.37804794 0.000000
-0.40860099 0.27605501 3.49789310 0.000000
-0.49485800 0.30274099 3.36016107 0.000000
-0.41028401 0.27905399 3.42236900 0.000000
-0.40976301 0.27999499 3.42223001 0.000000
-0.45422500 0.29084599 3.29185295 0.000000
-0.40104499 0.30837801 3.43627906 0.000000
-0.40355301 0.31761599 3.45377493 0.000000
-0.45741501 0.31164101 3.29142094 0.000000
-0.45606199 0.30838501 3.28810191 0.000000
-0.32153001 0.39704001 3.55837893 0.000000
-0.34434900 0.44133100 3.54323101 0.000000
-0.33850500 0.41640100 3.53469300 0.000000
-0.48196799 0.45994499 3.37202501 0.000000
-0.31583700 0.38937399 3.59200907 0.000000
-0.02805500 -0.15229100 2.07764602 0.000000
-0.01672100 -0.14421800 2.07459092 0.000000
-0.03170900 -0.13178900 2.07518291 0.000000
0.00350900 -0.10314600 2.06956005 0.000000
-0.06812400 -0.12547000 2.08936405 0.000000
0.01111700 -0.13153000 2.07385206 0.000000
-0.05813000 -0.12924100 2.07146811 0.000000
-0.14314900 0.49377799 2.68920588 0.000000
-0.15863900 0.49436599 2.75474906 0.000000
-0.14619100 0.50422400 2.70807409 0.000000
-0.15741800 0.48430601 2.74644709 0.000000
-0.14691100 0.50333703 2.72057891 0.000000
-0.15522900 0.46931699 2.73779702 0.000000
-0.17923801 0.57125401 2.82900691 0.000000
-0.19127500 0.56671202 2.84693098 0.000000
-0.17341600 0.60848498 2.80547190 0.000000
-0.16817500 0.57795501 2.76770210 0.000000
-0.18405400 0.53162402 2.83081889 0.000000
-0.18480501 0.53295499 2.83228588 0.000000
-0.19199599 0.56006700 2.84678411 0.000000
-0.16728900 0.56920201 2.77295494 0.000000
0.03586800 -0.00701000 2.06365705 0.000000
-0.13471401 -0.05136800 2.10612607 0.000000
0.01347700 -0.06956300 2.07155490 0.000000
0.00882500 -0.08571700 2.07720900 0.000000
-0.07246000 -0.10372900 2.07361698 0.000000
0.00429800 -0.08964400 2.07206202 0.000000
-0.07024300 -0.10913000 2.07961392 0.000000
-0.15464300 0.08583100 1.92968595 0.000000
-0.07667400 0.10152200 1.84284794 0.000000
-0.14458799 0.07545100 1.80635798 0.000000
-0.00056000 0.11574000 2.01074696 0.000000
-0.00802700 0.12184900 2.02947807 0.000000
0.00814100 0.11014600 2.07532597 0.000000
-0.15865400 0.06094600 2.12100196 0.000000
0.01888600 0.12811799 2.10086393 0.000000
0.02138800 0.12516800 2.10038209 0.000000
-0.15782200 0.07347000 2.13078094 0.000000
-0.05467100 0.17791000 2.09481096 0.000000
-0.14653300 0.11278800 2.11723089 0.000000
-0.14570799 0.11579700 2.11900306 0.000000
-0.17911100 0.03514900 2.08450699 0.000000
0.01224100 0.09974600 2.04993010 0.000000
-0.04789200 0.16078500 2.08450794 0.000000
-0.13156000 0.14817099 2.11033511 0.000000
-0.15425999 0.08524600 2.10846996 0.000000
-0.14846300 0.10431000 2.11576200 0.000000
-0.16044299 0.06501900 2.09838104 0.000000
-0.00266600 0.11936200 2.06943202 0.000000
0.03369600 0.04185200 2.03662896 0.000000
-0.05378300 0.20004299 2.12186599 0.000000
-0.13067800 0.17379600 2.14323211 0.000000
-0.05821900 0.18367700 2.10041904 0.000000
-0.13271700 0.17111200 2.14496803 0.000000
-0.01066600 0.17253700 2.11793208 0.000000
-0.14754599 0.12246400 2.13317204 0.000000
-0.02240500 0.16574401 2.10255194 0.000000
0.02754200 0.08978500 2.07989001 0.000000
0.02703200 0.09396200 2.08148694 0.000000
-0.15945800 0.04305500 2.12553692 0.000000
0.02791600 0.06964800 2.05578804 0.000000
-0.15720201 0.02289600 2.11976004 0.000000
0.00678200 0.14547300 2.10677910 0.000000
-0.15643400 0.09918200 2.14797091 0.000000
-0.00607900 0.13249700 2.08386588 0.000000
-0.04193500 0.17766000 2.10099101 0.000000
-0.13760100 0.15475200 2.13468695 0.000000
-0.01979000 0.17914601 2.11625504 0.000000
0.03150800 0.10911400 2.09571695 0.000000
0.03122600 0.13511799 2.12368107 0.000000
0.01711300 0.13676900 2.10708904 0.000000
-0.16070201 0.06408800 2.15596890 0.000000
0.03731400 0.14871600 2.14296007 0.000000
0.04170800 0.14573200 2.14600706 0.000000
0.05276100 0.13518600 2.15115309 0.000000
-0.15652500 0.09202800 2.17588592 0.000000
0.03670500 0.02898700 2.05591702 0.000000
-0.13920601 -0.05743200 2.09943509 0.000000
-0.15792200 -0.01788700 2.09658790 0.000000
0.03338100 0.03553000 2.04287601 0.000000
-0.23602299 0.22734000 3.14088798 0.000000
-0.23084600 0.22533600 3.13987303 0.000000
-0.39119801 0.22615699 2.96060610 0.000000
-0.39007899 0.24997900 3.01094508 0.000000
-0.39192700 0.23415200 2.97709799 0.000000
-0.24085601 0.23096099 3.16377807 0.000000
-0.40361899 0.23252800 2.97290397 0.000000
-0.42023399 0.24836101 3.01734996 0.000000
-0.41003799 0.23568299 2.98290610 0.000000
-0.30193201 0.22262600 3.15878201 0.000000
-0.32054299 0.21548200 3.16847992 0.000000
-0.30589101 0.22057299 3.15999603 0.000000
-0.34849599 0.20187500 3.04482698 0.000000
-0.35624799 0.20969400 3.06044412 0.000000
-0.35713401 0.21623600 3.02511907 0.000000
-0.34786400 0.20216499 3.03746295 0.000000
-0.35291901 0.21073399 3.02484488 0.000000
-0.30250299 0.19950899 3.12308311 0.000000
-0.30603901 0.19362900 3.12303090 0.000000
-0.30521700 0.19381499 3.12203407 0.000000
-0.32554600 0.17226399 3.13219190 0.000000
-0.31927401 0.18109700 3.13092399 0.000000
-0.34763199 0.19856900 3.04775691 0.000000
-0.34021100 0.18044400 3.03920698 0.000000
-0.33966300 0.17326400 3.04466295 0.000000
-0.34165299 0.18313301 3.04173589 0.000000
-0.34674200 0.18786500 3.05561996 0.000000
-0.36829001 0.14520501 3.22314191 0.000000
-0.36014900 0.12256500 3.22618103 0.000000
-0.35861000 0.11799200 3.23381710 0.000000
-0.36294699 0.13067900 3.21710610 0.000000
-0.38968599 0.15568800 3.13414001 0.000000
-0.38469100 0.13676600 3.11975193 0.000000
-0.40258899 0.12827000 3.12470603 0.000000
-0.37095499 0.15228499 3.21420908 0.000000
-0.36067399 0.12204000 3.18221092 0.000000
-0.35179800 0.09976500 3.18446708 0.000000
-0.36460501 0.12224900 3.09792304 0.000000
-0.38517001 0.10182000 3.09835100 0.000000
-0.37223700 0.11975500 3.10129189 0.000000
-0.26572201 0.23568800 3.15658998 0.000000
-0.26597601 0.23951501 3.16398907 0.000000
-0.25021601 0.22277901 3.11927891 0.000000
-0.24967000 0.22283800 3.11892891 0.000000
-0.36661699 0.22472900 3.00104594 0.000000
-0.34146899 0.19732600 2.98751092 0.000000
-0.36581600 0.22240300 2.98741388 0.000000
-0.33210900 0.18706200 2.98188806 0.000000
-0.29471600 0.22716400 3.15937209 0.000000
-0.29756299 0.22799601 3.16253495 0.000000
-0.28338701 0.20985700 3.12215090 0.000000
-0.36043799 0.21936300 3.01003194 0.000000
-0.35284400 0.21164100 3.01092696 0.000000
-0.24044999 0.18424200 3.23142791 0.000000
-0.23751800 0.19097500 3.22672105 0.000000
-0.23056699 0.18219000 3.21713090 0.000000
-0.23972601 0.19164900 3.22989988 0.000000
-0.45385799 0.20953400 2.99460292 0.000000
-0.45117599 0.20136900 2.97647691 0.000000
-0.46717501 0.20289700 3.03413701 0.000000
-0.45977899 0.19666000 3.00156498 0.000000
-0.24296200 0.19051600 3.23471093 0.000000
-0.24685700 0.16704500 3.24214292 0.000000
-0.24467200 0.14339200 3.24036694 0.000000
-0.47851300 0.18374200 3.05884194 0.000000
-0.47509399 0.20085000 3.06831408 0.000000
-0.47930899 0.18651000 3.06719899 0.000000
-0.30912700 0.11442800 3.26696801 0.000000
-0.31539100 0.09165800 3.24454689 0.000000
-0.45131201 0.10391200 3.09479403 0.000000
-0.44432199 0.10395000 3.10313511 0.000000
-0.31354100 0.11474500 3.26696706 0.000000
-0.31153899 0.12039700 3.27267408 0.000000
-0.44957200 0.12384200 3.12040591 0.000000
-0.45603299 0.13160600 3.11632299 0.000000
-0.36868900 0.17203900 3.21076202 0.000000
-0.37438399 0.17209500 3.22184110 0.000000
-0.34999701 0.19145700 3.18888497 0.000000
-0.33895299 0.17232600 3.15333509 0.000000
-0.35649401 0.19492000 3.20403790 0.000000
-0.36746201 0.17799300 3.11466193 0.000000
-0.36098501 0.18790001 3.09484601 0.000000
-0.35295999 0.16261300 3.08642507 0.000000
-0.36668700 0.18472999 3.10990691 0.000000
-0.35074401 0.17108700 3.07746100 0.000000
-0.35945001 0.15831500 3.18448591 0.000000
-0.36077800 0.16020200 3.18808103 0.000000
-0.35520399 0.12784500 3.16090798 0.000000
-0.35435000 0.15675400 3.17348599 0.000000
-0.35390401 0.13010199 3.15941691 0.000000
-0.37207201 0.16625500 3.13021994 0.000000
-0.36286801 0.15986100 3.10956192 0.000000
-0.34173399 0.13735101 3.06146407 0.000000
-0.34015599 0.14658000 3.05880189 0.000000
0.05481600 0.00953500 2.28050900 0.000000
-0.04701100 -0.01654100 2.27073407 0.000000
-0.03306500 -0.01774100 2.28726292 0.000000
0.03740200 -0.02232100 2.25455189 0.000000
-0.02881700 -0.02864000 2.26508188 0.000000
-0.03192300 -0.03038100 2.25667906 0.000000
-0.07928700 -0.03464500 2.42775202 0.000000
0.06046100 0.00981100 2.33076906 0.000000
0.04538700 0.00145300 2.32966495 0.000000
-0.47982401 -0.01842000 3.05344009 0.000000
-0.48513100 -0.00039300 3.04046512 0.000000
-0.27539101 -0.02388200 3.18629694 0.000000
-0.27130601 -0.01241100 3.18480206 0.000000
-0.47031799 0.01405600 3.05164909 0.000000
-0.47570899 0.00915800 3.04858899 0.000000
-0.45838600 -0.02489900 3.06626201 0.000000
-0.29805800 -0.00551300 3.13711691 0.000000
-0.28243199 -0.00445200 3.17139411 0.000000
-0.45324901 -0.01202000 3.06311202 0.000000
-0.41879600 -0.00025600 3.05928707 0.000000
-0.16536300 0.06954800 1.83563602 0.000000
-0.16315100 0.07494700 1.83942604 0.000000
-0.17946000 0.00984400 2.07638502 0.000000
-0.17652200 0.02419700 2.08747196 0.000000
0.03103300 0.05467800 2.05449295 0.000000
-0.15081400 -0.02308300 2.10845995 0.000000
0.03765800 0.03476700 2.06890011 0.000000
-0.16229101 0.00993600 2.10257411 0.000000
-0.01288100 -0.04467200 1.93070698 0.000000
-0.04252700 0.00357000 1.87697303 0.000000
-0.13318700 -0.01551600 1.85871601 0.000000
-0.11869600 0.55323899 2.87113500 0.000000
-0.10089300 0.51490098 2.80662107 0.000000
-0.10268700 0.51972598 2.81227207 0.000000
-0.23570700 0.55664802 2.76140094 0.000000
-0.14173099 0.03543900 1.79436696 0.000000
0.04021700 0.04078900 2.08225799 0.000000
0.04064900 0.01868800 2.07138991 0.000000
-0.13106500 -0.02394300 2.14433289 0.000000
-0.12712701 -0.02156900 2.15283704 0.000000
0.05041500 0.06714600 2.11260509 0.000000
0.04652100 0.03607400 2.10522890 0.000000
0.04150800 0.04936900 2.09138799 0.000000
-0.13216300 -0.00810300 2.16104007 0.000000
-0.14744000 0.00860900 2.14491606 0.000000
-0.15378800 0.01182400 2.13020110 0.000000
-0.24183699 0.19248100 3.07510304 0.000000
-0.24122700 0.20703299 3.09271598 0.000000
-0.24905699 0.20374200 3.09209108 0.000000
-0.34996399 0.20336600 2.96445799 0.000000
-0.33992901 0.18424299 2.93629098 0.000000
-0.32817000 0.18173601 2.97863412 0.000000
-0.26439801 0.17270100 3.06971908 0.000000
-0.25940901 0.15672000 3.05501699 0.000000
-0.26821199 0.15563500 3.05836201 0.000000
-0.27077001 0.18031199 3.07861805 0.000000
-0.25894800 0.14412101 3.04507709 0.000000
-0.32481301 0.16629700 2.95041394 0.000000
-0.32678500 0.16711099 2.94353199 0.000000
