-2.42221308 0.63055301 14.23109245 0.000000
-2.56488895 0.67237097 14.23450089 0.000000
-2.59702206 0.66654903 14.33231640 0.000000
-2.41779089 0.59190798 14.29438686 0.000000
-2.60198212 0.65117300 14.32739162 0.000000
-2.40864801 0.54492003 14.24266148 0.000000
-2.59240890 0.60479498 14.24952602 0.000000
-2.41417408 0.58595598 14.23368931 0.000000
-2.59136009 0.61459702 14.25498772 0.000000
-2.41471696 0.52485502 14.31200218 0.000000
-2.62436104 0.56018800 14.36276531 0.000000
-2.42602992 0.50691199 14.33410263 0.000000
-2.62428999 0.56946301 14.37977982 0.000000
-2.62374902 0.57623899 14.37452126 0.000000
-2.42343593 0.48006001 14.37471390 0.000000
-1.84629297 1.47589505 14.71188354 0.000000
-1.90653598 1.52920997 14.63158035 0.000000
-2.38281488 1.52210498 14.30546665 0.000000
-1.88547206 1.50794995 14.70307827 0.000000
-2.35962796 1.53089094 14.26344013 0.000000
-1.90478098 1.52145195 14.62421322 0.000000
-2.41843796 0.45845500 14.23058987 0.000000
-2.42864299 0.52857202 14.20374298 0.000000
-2.52819610 0.64140803 14.03005886 0.000000
-2.31974101 0.54412103 14.56090355 0.000000
-2.30551910 0.53563702 14.60403347 0.000000
-2.31408095 0.54959601 14.56392956 0.000000
-2.30067897 0.54992598 14.59126854 0.000000
-2.37030911 0.59751099 14.70122242 0.000000
-2.36941195 0.61337501 14.70673370 0.000000
-2.35492802 0.61804903 14.71308041 0.000000
-2.36516690 0.56730700 14.69300270 0.000000
-2.36649489 0.57966399 14.69662285 0.000000
-2.33306193 0.52514899 14.56955814 0.000000
-2.32108688 0.51549798 14.61677647 0.000000
-2.36242008 0.48710799 14.60629177 0.000000
-2.33817601 0.52169698 14.56811333 0.000000
-2.38619208 0.56532300 14.68562794 0.000000
-2.38570905 0.54108799 14.68111324 0.000000
-2.36209011 0.55316103 14.69016171 0.000000
-2.33767200 0.54874599 14.69627285 0.000000
-2.40745497 0.54417002 14.67550755 0.000000
-2.36096907 0.43092000 14.66058064 0.000000
-2.35824704 0.43198600 14.66698170 0.000000
-2.39077902 0.41490999 14.66491604 0.000000
-2.39650893 0.43897900 14.67343044 0.000000
-2.32795310 0.45558700 14.66590214 0.000000
-2.31661105 0.46804899 14.66341019 0.000000
-2.35642600 0.43767601 14.64681721 0.000000
-2.31201696 0.47244400 14.68665028 0.000000
-2.34410405 0.46554101 14.68386459 0.000000
-2.28770709 0.62190503 14.53551579 0.000000
-2.29557705 0.60033202 14.54039383 0.000000
-2.28483510 0.62916303 14.53418636 0.000000
-2.37367892 0.68854201 14.72261143 0.000000
-2.39599299 0.68049300 14.71027279 0.000000
-2.41056299 0.66017300 14.69834232 0.000000
-2.38709903 0.66055697 14.70923710 0.000000
-2.29035902 0.58692902 14.55821800 0.000000
-2.32190394 0.56186599 14.54054928 0.000000
-2.29428601 0.58086699 14.55890274 0.000000
-2.38279104 0.61895502 14.70225430 0.000000
-2.41275191 0.61368001 14.68810940 0.000000
-2.36235690 0.62674302 14.71270275 0.000000
-2.40229607 0.59855402 14.68980026 0.000000
-2.37280107 0.74276698 14.47719097 0.000000
-2.37864995 0.73110402 14.48414993 0.000000
-2.33888888 0.69076699 14.48769188 0.000000
-2.34757090 0.72887301 14.47376347 0.000000
-2.34832311 0.72380900 14.47631168 0.000000
-2.31201410 0.48679399 14.64650059 0.000000
-2.35809708 0.48407501 14.61456299 0.000000
-2.33222103 0.50601399 14.61720085 0.000000
-2.31752992 0.48417100 14.64440060 0.000000
-2.35912895 0.52889401 14.68669319 0.000000
-2.36592007 0.49481699 14.68150234 0.000000
-2.37285495 0.49908400 14.67936420 0.000000
-2.36935401 0.47514799 14.61251926 0.000000
-2.37329006 0.45333099 14.62193394 0.000000
-2.35468698 0.44931301 14.63777161 0.000000
-2.33895612 0.48953000 14.69132137 0.000000
-2.36824894 0.47307700 14.68258858 0.000000
-2.35934997 0.49395901 14.68383789 0.000000
-2.36768007 0.48502800 14.68173122 0.000000
-1.91912401 1.49595201 14.65630245 0.000000
-2.26304603 1.49874496 14.31092834 0.000000
-2.32240200 1.49007106 14.28211117 0.000000
-2.37093592 1.50316095 14.30877876 0.000000
-2.59382105 0.36589000 14.34960938 0.000000
-2.42130303 0.32580101 14.30723286 0.000000
-2.60231805 0.36333099 14.36313248 0.000000
-2.41912794 0.39171499 14.33033466 0.000000
-2.61931205 0.42511299 14.36818695 0.000000
-2.61721897 0.40202400 14.33687305 0.000000
-2.43173599 0.43923199 14.36655521 0.000000
-2.45814610 0.43033600 14.37885761 0.000000
-2.40887403 0.43631500 14.35224056 0.000000
-2.45078397 0.36453900 14.30261707 0.000000
-2.44097590 0.37191200 14.29594898 0.000000
-2.40664506 0.42987001 14.34915733 0.000000
-2.60625410 0.39772400 14.33097076 0.000000
-2.55762291 0.53461498 14.17503071 0.000000
-2.43545699 0.44897801 14.20766735 0.000000
-2.57670689 0.69296300 14.32633400 0.000000
-2.56564212 0.69561499 14.29264069 0.000000
-2.45692492 0.63735402 14.31587124 0.000000
-2.57003999 0.66546601 14.34521675 0.000000
-2.46492195 0.66566402 14.34557343 0.000000
-2.46373892 0.63813001 14.33584976 0.000000
-2.55142403 0.69672900 14.36439133 0.000000
-1.99584901 0.91112697 14.37259865 0.000000
-2.46972990 0.67960900 14.32394886 0.000000
-2.46534491 0.68161100 14.29329109 0.000000
-2.51897907 0.69968700 14.27886200 0.000000
-2.51961088 0.69751197 14.30619812 0.000000
-2.46487403 0.67642498 14.32143974 0.000000
-2.52622604 0.69277400 14.37674809 0.000000
-2.53543305 0.70063400 14.30087090 0.000000
-2.53214002 0.69463903 14.36858559 0.000000
-1.99385095 0.94558698 14.37552357 0.000000
-2.52969408 0.62522101 14.04169559 0.000000
-2.58681798 0.57827401 14.22162342 0.000000
-2.41609597 0.57354099 14.20645618 0.000000
-2.42758107 0.63951802 14.25108910 0.000000
-2.56528902 0.68358201 14.26876068 0.000000
-2.42592812 0.64207000 14.22139740 0.000000
-2.44432306 0.68017501 14.15418530 0.000000
-2.53562188 0.69986302 14.22258568 0.000000
-2.43519306 0.67528200 14.12105560 0.000000
-2.52734900 0.69657803 14.15406418 0.000000
-2.45255208 0.68036503 14.22400188 0.000000
-2.51956511 0.70072699 14.25334072 0.000000
-2.51625896 0.70102602 14.25529861 0.000000
-2.45523500 0.69491202 14.11876488 0.000000
-2.51099300 0.71029001 14.12110043 0.000000
-2.51448107 0.70169502 14.13480091 0.000000
-2.52645612 0.70425802 14.22977066 0.000000
-2.52155590 0.70025402 14.20166206 0.000000
-2.44872499 0.68097198 14.18737125 0.000000
-2.43617105 0.67510301 14.15044117 0.000000
-2.51342297 0.69935900 14.09169674 0.000000
-2.45815802 0.69021600 14.09351158 0.000000
-2.52740788 0.69717300 14.10341740 0.000000
-2.55428600 0.70295900 14.30755234 0.000000
-1.26296198 0.88205898 14.61403179 0.000000
-1.28207600 1.08861196 14.55692673 0.000000
-1.29112899 1.08218801 14.56901073 0.000000
-1.31622100 1.07179904 14.57364559 0.000000
-1.43311095 1.04691696 14.32222366 0.000000
-1.17378604 0.98982197 14.50232601 0.000000
-1.45227301 1.01271403 14.33667088 0.000000
-1.18559098 0.99006200 14.49088097 0.000000
-1.55997598 1.08162105 14.28440380 0.000000
-1.56692195 1.07843399 14.29185295 0.000000
-1.25937796 1.09760106 14.55340672 0.000000
-1.58101499 1.06677997 14.30609417 0.000000
-1.26787698 1.09387100 14.55697918 0.000000
-1.42577600 1.11270201 14.24833775 0.000000
-1.42797303 1.10670495 14.24955845 0.000000
-1.11169100 1.05254197 14.50950813 0.000000
-1.48463905 1.09832597 14.23570442 0.000000
-1.16322601 1.09742200 14.55060863 0.000000
-1.16049600 1.11108398 14.54519463 0.000000
-2.28083491 0.62736100 14.53643131 0.000000
-2.34794903 0.65938801 14.72781754 0.000000
-2.32337403 0.72995698 14.46773434 0.000000
-2.30550694 0.71666902 14.47124100 0.000000
-2.37869811 0.37095699 14.28499889 0.000000
-2.65137005 0.39551499 14.29359245 0.000000
-2.38349700 0.38864300 14.30636501 0.000000
-2.53510094 0.72741997 14.11058140 0.000000
-2.41136694 0.51413602 14.23708153 0.000000
-2.40896893 0.53574699 14.24147987 0.000000
-2.32131910 0.69728303 14.48801899 0.000000
-2.30776811 0.68222600 14.49757671 0.000000
-2.32763696 0.68902701 14.48902702 0.000000
-2.30625105 0.62937897 14.51348782 0.000000
-2.31025100 0.64573902 14.50816536 0.000000
-2.41029906 0.71812898 14.71570206 0.000000
-2.39736199 0.71022099 14.71835804 0.000000
-2.30646396 1.33490896 14.37784290 0.000000
-2.03548408 1.35128105 14.66478157 0.000000
-2.31418395 1.35431194 14.38426685 0.000000
-2.00466800 1.36850405 14.66627789 0.000000
-2.26541305 1.40401101 14.33863163 0.000000
-2.27335501 1.40623796 14.33492184 0.000000
-1.90054405 1.37968194 14.68843937 0.000000
-2.33332205 1.22788799 14.43080521 0.000000
-2.12608290 1.27450001 14.65456295 0.000000
-2.14343309 1.25593901 14.65575314 0.000000
-2.22249603 1.19368100 14.44530106 0.000000
-2.05257893 1.17760301 14.67044067 0.000000
-2.03386688 1.20771599 14.66574097 0.000000
-2.22912598 1.42649806 14.39078903 0.000000
-1.91292202 1.32670200 14.63630009 0.000000
-2.22885895 1.42604494 14.38880920 0.000000
-1.88703096 1.34100103 14.63777256 0.000000
-2.26350808 1.46001506 14.39879990 0.000000
-2.24632692 1.43523097 14.40781212 0.000000
-2.30838609 1.36126995 14.41670513 0.000000
-2.03003502 1.34245098 14.62563038 0.000000
-1.99597502 1.37067902 14.63077068 0.000000
-2.30684209 1.37935102 14.41311932 0.000000
-2.00905490 1.35363102 14.62259293 0.000000
-2.30554509 1.36938596 14.36381245 0.000000
-1.94885302 1.38765800 14.68154812 0.000000
-2.29142094 1.42170000 14.32724953 0.000000
-1.95480096 1.37726700 14.68478012 0.000000
-1.98523796 1.30796695 14.68470097 0.000000
-1.96707201 1.32943797 14.68871880 0.000000
-2.24998212 1.24098206 14.47520828 0.000000
-2.05682993 1.22396302 14.62321568 0.000000
-2.24115109 1.22749603 14.47315979 0.000000
-2.32120800 1.19495404 14.40028477 0.000000
-2.11378908 1.26720202 14.70110798 0.000000
-2.30339408 1.22549295 14.39119339 0.000000
-2.10284996 1.25277901 14.71298027 0.000000
-2.29669094 1.17885196 14.49124336 0.000000
-2.14964795 1.17874801 14.63046360 0.000000
-2.27118993 1.19848502 14.48786926 0.000000
-2.09225202 1.19682395 14.62659836 0.000000
-2.11420798 1.17636704 14.62866497 0.000000
-2.34836793 1.14113903 14.40730762 0.000000
-2.17923498 1.22089696 14.69742489 0.000000
-2.20597911 1.20009100 14.69624710 0.000000
-2.34379005 1.17756605 14.41646862 0.000000
-2.17720509 1.22967005 14.68388557 0.000000
-2.22303391 1.16825998 14.45850086 0.000000
-2.07202411 1.14446402 14.67593288 0.000000
-2.07177997 1.14433706 14.68801403 0.000000
-2.34091091 1.16203105 14.47394085 0.000000
-2.17961502 1.20290303 14.65164185 0.000000
-2.32903290 1.18218303 14.47589874 0.000000
-2.17014599 1.20019102 14.64268112 0.000000
-2.25229096 1.14393604 14.40768909 0.000000
-2.09167099 1.16080105 14.71874046 0.000000
-2.25662589 1.16005194 14.40184879 0.000000
-2.08273792 1.20003903 14.71748161 0.000000
-1.51323795 0.99774498 14.64351845 0.000000
-1.36013603 1.03800499 14.60723209 0.000000
-1.36654699 1.04305696 14.60035324 0.000000
-1.33413100 1.02365994 14.62329960 0.000000
-1.36924899 0.99542099 14.65097809 0.000000
-1.35339200 1.00550497 14.64099121 0.000000
-1.35061705 1.02239704 14.62500668 0.000000
-1.00222194 1.37164605 14.47436619 0.000000
-1.43139899 1.02816403 14.60314274 0.000000
-1.44211197 1.02490997 14.61046219 0.000000
-1.45028806 1.02144301 14.57810688 0.000000
-1.47761202 1.00852704 14.58752346 0.000000
-1.46403694 1.11927104 14.23132420 0.000000
-1.12446797 1.08702397 14.52888203 0.000000
-1.45896900 1.10697699 14.23671532 0.000000
-1.14914596 1.09585500 14.54920769 0.000000
-1.77573705 1.10569704 14.57293892 0.000000
-1.79469800 1.10877800 14.57638073 0.000000
-1.81763101 1.11248899 14.60454273 0.000000
-1.78502405 1.10622597 14.59548855 0.000000
-1.76073694 1.09860802 14.60445118 0.000000
-1.79542005 1.10562801 14.62069607 0.000000
-1.78371000 1.10190296 14.62541199 0.000000
-1.80597496 0.87048799 14.82333088 0.000000
-1.69640601 1.06104195 14.63460541 0.000000
-1.71029103 1.06895494 14.63575268 0.000000
-1.70742404 1.06322300 14.64964485 0.000000
-2.27711701 1.10644698 14.56336498 0.000000
-2.27818489 1.10752594 14.56702328 0.000000
-2.23165202 1.11435103 14.62329197 0.000000
-2.24582791 1.11433303 14.61499977 0.000000
-2.27101493 1.10739601 14.56528091 0.000000
-2.24738503 1.11147499 14.59235477 0.000000
-2.24586606 1.11129296 14.59716892 0.000000
-2.25206304 0.65142000 14.52060127 0.000000
-2.27071309 1.12058794 14.50669193 0.000000
-2.16411400 1.13672602 14.63543320 0.000000
-2.28793311 1.15040302 14.49873447 0.000000
-2.17374802 1.15090704 14.63389397 0.000000
-2.20710111 0.56529403 14.67195034 0.000000
-2.28298497 1.22158802 14.48373508 0.000000
-2.06447101 1.22978604 14.61777115 0.000000
-2.27909589 1.25957406 14.47807407 0.000000
-2.09493899 1.23330700 14.61832142 0.000000
-2.28571510 1.45146596 14.40701008 0.000000
-2.28764701 1.46700096 14.39989662 0.000000
-2.31967902 1.17153096 14.48443985 0.000000
-2.14760709 1.20456505 14.63385391 0.000000
-2.30938411 1.17531705 14.48807144 0.000000
-2.13609505 1.19358695 14.62763691 0.000000
-2.13820195 1.19391704 14.62847328 0.000000
-2.26588798 1.17151296 14.39383411 0.000000
-2.10519099 1.18248200 14.72883415 0.000000
-2.10764599 1.20182395 14.72779846 0.000000
-1.62135005 0.81946403 14.30903244 0.000000
-1.26090896 0.91603202 14.60660267 0.000000
-1.26249397 0.91751999 14.60878944 0.000000
-1.25478303 0.91975302 14.59902477 0.000000
-1.26661694 0.95466000 14.62253666 0.000000
-1.25395000 0.94187200 14.60158443 0.000000
-1.27446997 0.93712801 14.62715721 0.000000
-1.22282505 0.94928998 14.50437069 0.000000
-1.21708798 0.96783501 14.49161434 0.000000
-1.24135995 0.93367797 14.50536823 0.000000
-1.24987400 0.94040900 14.49292755 0.000000
-1.23084497 0.93183899 14.51471615 0.000000
-1.21665704 0.98803800 14.57220459 0.000000
-1.22654796 0.98023999 14.58099461 0.000000
-1.24025095 0.97254902 14.59438992 0.000000
-1.21732199 0.96700501 14.56477165 0.000000
-1.20943904 0.99063802 14.56467342 0.000000
-1.23660505 1.00869298 14.60461235 0.000000
-1.22874498 1.01173997 14.59651089 0.000000
-1.36838198 0.98144501 14.66298580 0.000000
-1.39576900 0.96092898 14.67665958 0.000000
-1.32552803 0.95073998 14.65000916 0.000000
-1.33348000 0.94544500 14.65622997 0.000000
-1.36301696 0.95235199 14.66907215 0.000000
-1.58851194 0.95096201 14.27624989 0.000000
-1.34311604 0.99573201 14.64707279 0.000000
-1.31247199 1.02225697 14.61957264 0.000000
-1.35000300 0.99111301 14.65226173 0.000000
-1.33358705 1.01958704 14.62700367 0.000000
-1.32245004 0.96476501 14.64570808 0.000000
-1.30781698 0.97749001 14.64124966 0.000000
-1.26966000 0.98756599 14.62870789 0.000000
-1.27438295 0.94601798 14.62866306 0.000000
-1.27643800 0.93868703 14.62907028 0.000000
-1.24916506 0.85952002 14.58408642 0.000000
-1.25734496 0.84355801 14.60482025 0.000000
-1.23920405 0.90580398 14.57614613 0.000000
-1.44178700 1.02138805 14.29662895 0.000000
-1.18441296 0.98016602 14.51699734 0.000000
-1.18684196 0.97959900 14.52009678 0.000000
-1.17651105 1.00115502 14.53259563 0.000000
-1.09674597 1.04955602 14.48937607 0.000000
-1.41445994 1.15398002 14.24660492 0.000000
-1.45331001 1.23137605 14.23652935 0.000000
-1.05345201 1.14109504 14.45131111 0.000000
-1.47881305 1.26945198 14.22904015 0.000000
-1.55894303 1.38346803 14.18755913 0.000000
-1.54747796 1.36717999 14.17943859 0.000000
-1.42250395 1.14628804 14.24374104 0.000000
-1.41571701 1.13919497 14.24735355 0.000000
-1.08921802 1.08562803 14.49352646 0.000000
-1.10265195 1.10599303 14.51628494 0.000000
-1.49168599 1.26072896 14.21531200 0.000000
-1.51337397 1.26870096 14.20397854 0.000000
-1.05958295 1.16530097 14.48064613 0.000000
-1.05223095 1.17781496 14.47894382 0.000000
-1.46596503 1.23891699 14.22643948 0.000000
-1.05375099 1.15326905 14.46712208 0.000000
-1.05835903 1.14975405 14.47072029 0.000000
-2.30255008 1.10782301 14.65075874 0.000000
-2.19868302 1.13691795 14.75766945 0.000000
-2.22241306 1.13493097 14.75269222 0.000000
-2.20945692 1.14202201 14.75348473 0.000000
-2.28970790 1.14432800 14.38754463 0.000000
-2.10676289 1.21687996 14.72494411 0.000000
-2.30322289 1.18651295 14.38932037 0.000000
-2.11182094 1.22885704 14.72071457 0.000000
-2.28327298 1.21213698 14.38561535 0.000000
-2.09635806 1.23895800 14.71782780 0.000000
-2.09836507 1.25195897 14.71386337 0.000000
-2.07430506 1.26941395 14.71030712 0.000000
-2.06316590 1.28960299 14.70547295 0.000000
-2.03292704 1.31120706 14.69842911 0.000000
-2.27110291 1.30848897 14.37108517 0.000000
-2.26301193 1.45858097 14.32151508 0.000000
-2.26615500 1.47563505 14.31423473 0.000000
-1.86260104 1.36270797 14.66277409 0.000000
-1.85571504 1.37281799 14.66531086 0.000000
-1.69534302 1.38782895 14.19421196 0.000000
-1.66368103 1.37031305 14.16800022 0.000000
-1.02942395 1.36860895 14.46994019 0.000000
-1.02235305 1.34750700 14.45865440 0.000000
-1.02447796 1.39806902 14.47508907 0.000000
-1.01812899 1.41102505 14.47762394 0.000000
-1.68074596 1.40266502 14.23524189 0.000000
-1.69244504 1.38673902 14.20893478 0.000000
-1.67957699 1.37624800 14.21208382 0.000000
-1.05507004 1.39848995 14.45096493 0.000000
-1.05231905 1.40741205 14.45290375 0.000000
-0.99730200 1.33804905 14.46019840 0.000000
-1.60817599 1.41735196 14.24228287 0.000000
-1.03580594 1.35679400 14.37560272 0.000000
-1.66077101 1.39388704 14.24499607 0.000000
-2.48039198 0.69139802 14.36216927 0.000000
-2.52045012 0.70714498 14.39417839 0.000000
-2.57499695 0.70229501 14.41148090 0.000000
-2.56995702 0.69731402 14.43153858 0.000000
-2.43416405 0.44152799 14.31616783 0.000000
-2.63168406 0.49705699 14.31301785 0.000000
-2.41910410 0.45761999 14.29626083 0.000000
-2.62423396 0.50135100 14.35481644 0.000000
-2.47176194 0.68323398 14.37257576 0.000000
-2.49277997 0.38573799 14.28465080 0.000000
-2.58618093 0.41172400 14.29392529 0.000000
-2.47987294 0.39104599 14.29061890 0.000000
-2.48643398 0.38344201 14.30989838 0.000000
-2.58063602 0.39239100 14.31839561 0.000000
-2.44294095 0.63224900 14.33289719 0.000000
-2.44176197 0.64024401 14.35260487 0.000000
-2.46181393 0.55217898 14.12663841 0.000000
-2.54151011 0.57034200 14.12109184 0.000000
-2.43620610 0.54146397 14.18586445 0.000000
-2.47204208 0.55524403 14.10604763 0.000000
-2.42138410 0.55598301 14.19821930 0.000000
-2.45064497 0.66726398 14.07460690 0.000000
-2.52847791 0.68239200 14.08700371 0.000000
-2.44739294 0.68040502 14.12260056 0.000000
-2.52604103 0.69503802 14.13292313 0.000000
-2.51858497 0.68561101 14.09507370 0.000000
-2.45006895 0.68025798 14.22187614 0.000000
-2.44955206 0.67512900 14.27160072 0.000000
-2.54622197 0.70418698 14.28305626 0.000000
-2.54619002 0.69818401 14.23849773 0.000000
-2.43596292 0.66989398 14.09790039 0.000000
-2.51225591 0.69454497 14.08325768 0.000000
-2.49810410 0.69563103 14.07965660 0.000000
-2.52178788 0.74253798 14.12938976 0.000000
-2.48941588 0.74706298 14.06601620 0.000000
-2.43911505 0.69622803 14.18732452 0.000000
-2.44550896 0.66913998 14.25154209 0.000000
-2.55059910 0.70103502 14.26059628 0.000000
-2.45569706 0.65566498 14.30639172 0.000000
-2.45883107 0.66809601 14.31879425 0.000000
-2.56587696 0.67530900 14.33035278 0.000000
-2.57125592 0.66523099 14.33042240 0.000000
-2.56097603 0.68534201 14.30956459 0.000000
-2.56110907 0.68401903 14.33572006 0.000000
-2.45256901 0.67209798 14.25087261 0.000000
-2.43904090 0.67498797 14.16178226 0.000000
-2.53310490 0.69067198 14.13075447 0.000000
-2.43736410 0.66675001 14.10011482 0.000000
-2.52674699 0.73892897 14.13103676 0.000000
-2.42413497 0.72483498 14.06955528 0.000000
-2.41938210 0.72510999 14.07712364 0.000000
-2.55119205 0.70738602 14.26605701 0.000000
-2.45390701 0.85361701 14.51885414 0.000000
-2.45657992 0.85001600 14.52517414 0.000000
-2.42992806 0.80445200 14.46069527 0.000000
-2.41422105 0.80953401 14.47747040 0.000000
-2.46995711 0.70910102 14.40410233 0.000000
-2.47897792 0.72036302 14.40878010 0.000000
-2.10259700 0.62078100 14.67510796 0.000000
-2.25570107 1.49208295 14.35661697 0.000000
-2.25757003 1.49786699 14.34850979 0.000000
-2.22288609 1.29405105 14.40303707 0.000000
-1.98323798 1.28581095 14.67080879 0.000000
-2.21910000 1.27441204 14.41343117 0.000000
-2.22260904 1.19178903 14.43584919 0.000000
-2.05687499 1.17765498 14.68662643 0.000000
-2.22570896 1.21554399 14.42090702 0.000000
-2.22610497 1.39827800 14.38189220 0.000000
-1.91565299 1.33089697 14.66350937 0.000000
-2.23449898 1.43252301 14.35900879 0.000000
-1.87801898 1.34808505 14.65741062 0.000000
-2.08770609 1.11972404 14.67862988 0.000000
-2.21886897 1.11229396 14.44761658 0.000000
-2.09404898 1.10658002 14.70067692 0.000000
-1.39119399 1.11050904 14.28394699 0.000000
-1.12301004 1.02519500 14.47972298 0.000000
-1.39556301 1.11744201 14.29083347 0.000000
-1.52123404 1.13205695 14.31963921 0.000000
-1.22624099 1.10631597 14.47961044 0.000000
-1.53450406 1.12683904 14.27886200 0.000000
-1.48403800 1.12880802 14.34490490 0.000000
-1.21498895 1.10688305 14.46437263 0.000000
-1.47348297 1.14700496 14.33659554 0.000000
-1.19744098 1.11172402 14.45580769 0.000000
-1.14839900 1.05431998 14.44947529 0.000000
-1.13730800 1.05979395 14.44992542 0.000000
-1.10454905 1.03819394 14.49073887 0.000000
-1.10005200 1.04408097 14.49055576 0.000000
-1.47606206 1.14558899 14.22299480 0.000000
-1.11899602 1.12679195 14.52840328 0.000000
-1.45356297 1.13380003 14.23084641 0.000000
-1.11000299 1.10363197 14.52311230 0.000000
-1.46786201 1.25624502 14.23899937 0.000000
-1.45713794 1.23735297 14.25423813 0.000000
-1.44380701 1.22481894 14.24911022 0.000000
-1.07168305 1.12819302 14.44719028 0.000000
-2.42860699 0.41561800 14.36328983 0.000000
-2.37681794 0.39623600 14.33473206 0.000000
-2.65368891 0.43358800 14.35632133 0.000000
-2.62658596 0.46600699 14.39268398 0.000000
-2.38701701 0.40876901 14.33163357 0.000000
-2.63617611 0.45220500 14.35849285 0.000000
-2.47842908 0.36728299 14.35571098 0.000000
-2.45980000 0.35480300 14.35426712 0.000000
-2.43484712 0.40876600 14.35633183 0.000000
-2.42164993 0.39968199 14.35179710 0.000000
-2.52981305 0.70207000 14.27593422 0.000000
-2.46832895 0.68952602 14.28274345 0.000000
-2.53317094 0.70351201 14.30122471 0.000000
-2.45461011 0.66924101 14.27988243 0.000000
-2.43289804 0.64916599 14.26574039 0.000000
-2.57271290 0.68121803 14.28993893 0.000000
-2.41890597 0.62163800 14.27472782 0.000000
-2.58509398 0.67391503 14.30604935 0.000000
-2.40818191 0.53221703 14.26985264 0.000000
-2.61722207 0.56808800 14.30360699 0.000000
-2.40871596 0.54963303 14.26051426 0.000000
-2.60391307 0.60890698 14.29172897 0.000000
-2.61122394 0.59547901 14.30557728 0.000000
-2.43130112 0.63366300 14.29804420 0.000000
-2.59652901 0.67455101 14.34316635 0.000000
-2.59178090 0.68656301 14.35106659 0.000000
-2.40792799 0.51203603 14.25290871 0.000000
-2.61059999 0.56499100 14.27236843 0.000000
-2.61310911 0.54753602 14.26340675 0.000000
-2.42456698 0.46340099 14.31318474 0.000000
-2.62608099 0.53600299 14.33895779 0.000000
-2.62862802 0.52155697 14.33468819 0.000000
-2.42126393 0.48759201 14.31598091 0.000000
-2.62525010 0.53838599 14.36682129 0.000000
-2.42460704 0.53158897 14.33166599 0.000000
-2.62213898 0.59566402 14.36634636 0.000000
-2.62370610 0.59306502 14.40767670 0.000000
-2.62033892 0.62017000 14.40271568 0.000000
-2.50932789 0.74559098 14.06881523 0.000000
-2.41249299 0.58428800 14.27390480 0.000000
-2.60569406 0.62854898 14.31410694 0.000000
-2.40978694 0.54516602 14.28358269 0.000000
-2.61378908 0.61492801 14.32992458 0.000000
-2.42053103 0.68374801 14.15264225 0.000000
-2.54605389 0.70665300 14.17737865 0.000000
-2.42355394 0.65803897 14.17907047 0.000000
-2.55133510 0.69316900 14.16384411 0.000000
-2.41487288 0.59250402 14.23765087 0.000000
-2.58573890 0.64340198 14.27024460 0.000000
-2.41517711 0.60824800 14.26327515 0.000000
-2.59512305 0.65293401 14.30665874 0.000000
-2.46811199 0.51386499 14.16300964 0.000000
-2.48283911 0.51541400 14.14451218 0.000000
-2.56649208 0.47418001 14.20137024 0.000000
-2.46130204 0.41895300 14.22860718 0.000000
-2.45895910 0.42997199 14.21435738 0.000000
-2.62441111 0.50900400 14.26366138 0.000000
-2.62240601 0.50714499 14.25539589 0.000000
-2.61061192 0.54807401 14.25567436 0.000000
-2.41423202 0.52929199 14.22650719 0.000000
-2.41702294 0.53093398 14.21945858 0.000000
-2.58739090 0.59245902 14.22795010 0.000000
-2.43362403 0.57703602 14.15611839 0.000000
-2.53230309 0.58688200 14.08439445 0.000000
-2.52072501 0.58227801 14.07278347 0.000000
-2.46606898 0.49837300 14.17956066 0.000000
-2.52986789 0.54067999 14.12518597 0.000000
-2.55488896 0.52189797 14.17445946 0.000000
-2.55036592 0.54483902 14.15716934 0.000000
-2.54424906 0.51418400 14.16467571 0.000000
-2.53805208 0.53512299 14.14159393 0.000000
-2.49298906 0.48316100 14.17160606 0.000000
-2.45942497 0.44908699 14.19968224 0.000000
-2.45690203 0.46098500 14.19549084 0.000000
-2.48612094 0.42645299 14.22256947 0.000000
-2.56478810 0.46012899 14.21105862 0.000000
-2.55138493 0.50068098 14.17978573 0.000000
-2.44538212 0.46711200 14.20071220 0.000000
-2.45456910 0.57745802 14.09282398 0.000000
-2.43618107 0.58493698 14.12726974 0.000000
-2.46542406 0.58859700 14.06144524 0.000000
-2.53747201 0.72251302 14.18495369 0.000000
-2.42612505 0.67342103 14.17693138 0.000000
-2.53763700 0.71560001 14.22692204 0.000000
-2.54083490 0.71358699 14.21804428 0.000000
-2.53736711 0.71482199 14.21683979 0.000000
-2.56147194 0.66763502 14.20734501 0.000000
-2.42720103 0.65995401 14.19382286 0.000000
-2.45992589 0.63711399 14.01826286 0.000000
-2.53928089 0.72166097 14.13428783 0.000000
-2.41325593 0.67771202 14.13199234 0.000000
-2.54029393 0.71988702 14.13748169 0.000000
-2.41895795 0.70936197 14.12433338 0.000000
-2.53872490 0.72222501 14.15786934 0.000000
-2.55999088 0.31213799 14.35084629 0.000000
-2.57015109 0.31166899 14.34824276 0.000000
-2.55063009 0.30779600 14.34663010 0.000000
-2.57182288 0.30719200 14.36676979 0.000000
-2.54493594 0.46290901 14.20039940 0.000000
-2.54910803 0.48228100 14.18821144 0.000000
-2.50652099 0.70341301 14.18820477 0.000000
-2.48119712 0.70256901 14.17909622 0.000000
-2.49065495 0.70175803 14.19597816 0.000000
-2.46994305 0.63134301 14.01872921 0.000000
-2.47074294 0.70519400 14.12950230 0.000000
-2.48569989 0.70884597 14.11918354 0.000000
-2.49205208 0.70944899 14.13971424 0.000000
-2.51401091 0.60514897 14.04399776 0.000000
-2.50783491 0.39337400 14.26368427 0.000000
-2.56609297 0.39893100 14.27371502 0.000000
-2.52724600 0.35510099 14.28277779 0.000000
-2.56595302 0.37502301 14.28476810 0.000000
-2.56791806 0.38454300 14.28738117 0.000000
-2.52425909 0.56119102 14.09943771 0.000000
-2.50255895 0.68532503 14.09181690 0.000000
-2.47469091 0.67573297 14.07637787 0.000000
-2.47170496 0.67571598 14.07999420 0.000000
-2.49630809 0.52644700 14.12565899 0.000000
-2.49519897 0.57560402 14.06737041 0.000000
-2.53065801 0.50771898 14.15557766 0.000000
-2.49799895 0.44736201 14.20179081 0.000000
-2.51663709 0.50120997 14.15412903 0.000000
-2.52395701 0.58979201 14.06879616 0.000000
-2.50157404 0.74958497 14.07661343 0.000000
-2.43750191 0.43844199 14.32114315 0.000000
-2.61431289 0.46657199 14.34364891 0.000000
-2.62064004 0.46599299 14.32407284 0.000000
-2.63022804 0.47540799 14.30537796 0.000000
-2.41526508 0.68766201 14.05664730 0.000000
-2.40663600 0.69298202 14.08181763 0.000000
-2.40722609 0.68586397 14.08112144 0.000000
-2.40807891 0.68274599 14.11301613 0.000000
-2.54654098 0.70475799 14.12748432 0.000000
-2.55026507 0.69355297 14.13410759 0.000000
-2.41206503 0.65325302 14.08967972 0.000000
-2.41715407 0.63439101 14.10192680 0.000000
-2.42284989 0.67648298 14.04397583 0.000000
-2.15320897 0.87193602 14.79989624 0.000000
-2.14907908 0.81691003 14.79534340 0.000000
-2.14068007 1.06536806 14.75582695 0.000000
-2.14850092 0.96822000 14.78680611 0.000000
-2.24877000 1.43731701 14.33778477 0.000000
-1.87709105 1.35959899 14.67654037 0.000000
-2.24660206 1.41801596 14.34506607 0.000000
-2.24507999 1.22356796 14.39548016 0.000000
-2.04810309 1.22990596 14.70340538 0.000000
-2.07588911 1.20891798 14.71539879 0.000000
-2.14242291 1.02796102 14.76802731 0.000000
-2.14659405 1.02564800 14.77387810 0.000000
-2.00773907 1.26747000 14.68508339 0.000000
-2.23448706 1.32812405 14.38520813 0.000000
-2.23389196 1.11699700 14.42599964 0.000000
-2.08126903 1.15248001 14.70767593 0.000000
-2.24406791 1.17702198 14.40934181 0.000000
-2.39112496 0.46247199 14.59515858 0.000000
-2.38435793 0.46922401 14.59966183 0.000000
-2.38767004 0.43088001 14.61878967 0.000000
-2.38073492 0.43560299 14.62474155 0.000000
-2.42026901 0.46869799 14.66073418 0.000000
-2.42141700 0.47045901 14.65976715 0.000000
-2.41182709 0.49095401 14.66557503 0.000000
-2.41475701 0.48269099 14.66392899 0.000000
-2.46814895 0.46410301 14.62545776 0.000000
-2.44722700 0.40329200 14.56503201 0.000000
-2.43687391 0.40656599 14.57530212 0.000000
-2.45214891 0.38462800 14.57462025 0.000000
-2.42290592 0.40008101 14.59837818 0.000000
-2.46561790 0.41439700 14.63040066 0.000000
-2.45700407 0.42500100 14.63617229 0.000000
-2.49747300 0.40564799 14.60723686 0.000000
-2.45593596 0.43420100 14.63641644 0.000000
-2.42507911 0.43388599 14.65937901 0.000000
-2.64169312 0.32748201 14.27319813 0.000000
-2.58599210 0.38506800 14.42519855 0.000000
-2.49193001 0.36638501 14.37175465 0.000000
-2.58208108 0.36976701 14.40799618 0.000000
-2.59042692 0.44654900 14.34793091 0.000000
-2.39106798 0.32861000 14.23574924 0.000000
-2.64195895 0.33677700 14.26703453 0.000000
-2.61978889 0.47474501 14.24960327 0.000000
-2.62016892 0.46588999 14.25525379 0.000000
-2.44646311 0.46775401 14.20665932 0.000000
-2.58728909 0.52114803 14.21935081 0.000000
-2.43682194 0.41991499 14.38160610 0.000000
-2.61083388 0.45597801 14.41445541 0.000000
-2.60254002 0.44519600 14.37392807 0.000000
-2.44037700 0.43239400 14.35061836 0.000000
-2.59462810 0.46987200 14.36202335 0.000000
-2.60350990 0.48654899 14.39624882 0.000000
-2.42779112 0.46815401 14.36508846 0.000000
-2.61018205 0.51618201 14.42016888 0.000000
-2.60288906 0.50693399 14.39051628 0.000000
-2.61091590 0.49334300 14.40921402 0.000000
-2.61082411 0.51024503 14.42253876 0.000000
-2.61081600 0.47292501 14.42744160 0.000000
-1.47497904 1.17910194 14.31877995 0.000000
-1.15063202 1.10107398 14.43757439 0.000000
-1.45954502 1.15750301 14.32729721 0.000000
-1.13994396 1.08132398 14.44182014 0.000000
-1.53605402 1.30544806 14.26854897 0.000000
-1.06911504 1.21606898 14.40635014 0.000000
-1.06731999 1.22494900 14.40395546 0.000000
-1.57785904 1.33210802 14.26722527 0.000000
-1.05344200 1.25866306 14.39123440 0.000000
-1.49591601 1.10560703 14.35295677 0.000000
-1.20379996 1.04150403 14.45574474 0.000000
-1.50669301 1.08563602 14.35915947 0.000000
-1.22734201 1.06864703 14.45710087 0.000000
-1.24016201 1.06343305 14.46237755 0.000000
-1.03616905 1.33161998 14.37988758 0.000000
-1.17229795 1.08199096 14.44037247 0.000000
-1.45396900 1.13898003 14.33482456 0.000000
-2.54532003 0.69681698 14.08437729 0.000000
-2.54896998 0.58582199 14.12876797 0.000000
-2.45696902 0.59796399 14.05349636 0.000000
-2.44738793 0.58104402 14.09996223 0.000000
-2.46564794 0.56472802 14.09965897 0.000000
-2.48382711 0.74551600 14.06007195 0.000000
-2.46789408 0.39913699 14.30335045 0.000000
-2.60402393 0.43610099 14.32992554 0.000000
-2.45496702 0.40838599 14.29852390 0.000000
-2.60230589 0.43575501 14.28919220 0.000000
-2.45188808 0.41782901 14.23371887 0.000000
-2.45658493 0.42139301 14.22499847 0.000000
-2.43605804 0.43990001 14.21085167 0.000000
-2.61195707 0.50768399 14.23569298 0.000000
-1.49348295 1.15502799 14.22074699 0.000000
-1.11162102 1.14304805 14.51994991 0.000000
-1.11624002 1.12699795 14.52649021 0.000000
-1.48583305 1.19578695 14.21785355 0.000000
-1.11575699 1.15047204 14.52333355 0.000000
-1.60335004 1.34484994 14.16568756 0.000000
-0.99157000 1.29386306 14.46300697 0.000000
-1.56987500 1.33139896 14.17084980 0.000000
-1.55880105 1.32120800 14.17476273 0.000000
-1.00711405 1.27312303 14.47221756 0.000000
-1.53789794 1.21650100 14.28345871 0.000000
-1.15815699 1.18285894 14.46689415 0.000000
-1.52930295 1.18212998 14.28527069 0.000000
-1.53205705 1.18416095 14.28201008 0.000000
-1.17077005 1.17113304 14.47379780 0.000000
-1.51047397 1.21929896 14.29855537 0.000000
-1.15498602 1.14832306 14.43730164 0.000000
-1.14191902 1.16651702 14.43548870 0.000000
-1.53059900 1.22596395 14.28645420 0.000000
-1.15312099 1.17254102 14.44751358 0.000000
-1.14051402 1.17717195 14.43940926 0.000000
-1.63213599 1.37291801 14.25003242 0.000000
-1.05279100 1.34394205 14.39803314 0.000000
-1.61348903 1.33698106 14.25558472 0.000000
-1.04728794 1.32156599 14.38653183 0.000000
-1.64390504 1.35940504 14.16814232 0.000000
-1.01573503 1.31988394 14.46613598 0.000000
-1.60660803 1.32931495 14.17289639 0.000000
-1.01539004 1.31544101 14.46623516 0.000000
-1.50813997 1.16357100 14.22738647 0.000000
-1.12806106 1.16161597 14.51980972 0.000000
-1.12898505 1.16784298 14.51587486 0.000000
-1.50466204 1.18101394 14.21649837 0.000000
-1.11955500 1.16208804 14.51953888 0.000000
-1.10523200 1.17297804 14.51262379 0.000000
-1.44290602 1.18896699 14.29587746 0.000000
-1.10577202 1.08255696 14.45106983 0.000000
-1.45890403 1.21173704 14.28793144 0.000000
-1.10203505 1.12013698 14.43916416 0.000000
-1.11171997 1.10528803 14.44110298 0.000000
-1.54757500 1.35702801 14.24474716 0.000000
-1.02001500 1.27209997 14.38382053 0.000000
-1.01812804 1.26993096 14.38464928 0.000000
-1.57110500 1.35612702 14.25981236 0.000000
-1.02728796 1.28772902 14.37780285 0.000000
-1.53638196 1.17820096 14.26156235 0.000000
-1.54584098 1.19518602 14.26273441 0.000000
-1.14986706 1.18522406 14.49132442 0.000000
-1.53473902 1.18552601 14.24013615 0.000000
-1.16260302 1.17131805 14.49748135 0.000000
-1.16419005 1.16617703 14.50386143 0.000000
-1.03857100 1.33903205 14.45500469 0.000000
-1.04501498 1.32436705 14.46035480 0.000000
-1.51110899 1.33344197 14.21666527 0.000000
-0.99384099 1.22996902 14.43324757 0.000000
-1.54007602 1.37017596 14.19416237 0.000000
-0.98341203 1.24659204 14.42161655 0.000000
-1.44120502 1.20720994 14.23829174 0.000000
-1.41547406 1.18320203 14.25623322 0.000000
-1.42414796 1.17179000 14.24182606 0.000000
-1.08054495 1.09815300 14.47898102 0.000000
-1.55062199 1.34805298 14.17639542 0.000000
-0.97828603 1.26468503 14.44289970 0.000000
-1.52982199 1.34058499 14.18907738 0.000000
-0.98926401 1.25044596 14.44844627 0.000000
-1.45572495 1.16345799 14.22545433 0.000000
-1.46736598 1.18960297 14.22261429 0.000000
-1.08468294 1.12721705 14.49667645 0.000000
-1.10464799 1.10958004 14.51985168 0.000000
-1.45216000 1.20937097 14.23112679 0.000000
-1.08282602 1.13693094 14.49608135 0.000000
-1.52544796 1.35045195 14.22257328 0.000000
-1.52877903 1.35010695 14.23046875 0.000000
-1.00946999 1.23175204 14.40616226 0.000000
-1.54079998 1.37409496 14.21767330 0.000000
-0.99362200 1.26248705 14.39340115 0.000000
-0.99080598 1.25944495 14.39676571 0.000000
-1.08748996 1.07578802 14.46376228 0.000000
-1.41395497 1.18319595 14.26276970 0.000000
-1.07913399 1.08918905 14.46372509 0.000000
-1.06152797 1.33666503 14.40919495 0.000000
-1.47979498 1.19029295 14.31345844 0.000000
-1.48165596 1.20232701 14.30685520 0.000000
-1.13114595 1.09965098 14.43712425 0.000000
-1.13321197 1.12788403 14.43297482 0.000000
-1.49148500 1.21890903 14.29821396 0.000000
-1.13208795 1.15862203 14.43092346 0.000000
-1.59517097 1.37102199 14.25692463 0.000000
-1.03325403 1.30865598 14.37744999 0.000000
-1.58730304 1.35411894 14.26248264 0.000000
-1.05367994 1.28716099 14.38757706 0.000000
-2.36185694 1.11064899 14.41537952 0.000000
-2.36157298 1.11252403 14.41557407 0.000000
-2.20746112 1.19687796 14.69933319 0.000000
-2.37514806 1.10761201 14.43728542 0.000000
-2.22727990 1.17489100 14.71073437 0.000000
-2.23275208 1.16648102 14.71762943 0.000000
-2.31807804 1.15568495 14.49083138 0.000000
-2.17272902 1.17722595 14.63740158 0.000000
-2.31217194 1.12690604 14.50114441 0.000000
-2.17789888 1.15302300 14.63416481 0.000000
-2.22669911 1.12199104 14.47342300 0.000000
-2.11015892 1.10903299 14.66855717 0.000000
-2.10389090 1.12675202 14.65273094 0.000000
-2.29008293 1.12826204 14.38954639 0.000000
-2.15765095 1.15750098 14.74932098 0.000000
-2.29066110 1.09832299 14.39176369 0.000000
-2.15275598 1.14183700 14.75103569 0.000000
-2.36105204 1.14500701 14.44592190 0.000000
-2.36028695 1.12043595 14.46784687 0.000000
-2.21034908 1.18738699 14.66932297 0.000000
-2.36336303 1.12145996 14.45953560 0.000000
-2.36646104 1.12776697 14.44614506 0.000000
-2.23492789 1.17348397 14.69001007 0.000000
-2.26239109 1.15181100 14.49590969 0.000000
-2.13021493 1.12996101 14.64229965 0.000000
-2.12370610 1.15805101 14.63210487 0.000000
-2.13885093 1.10959601 14.64885139 0.000000
-2.32297397 1.13411903 14.39042664 0.000000
-2.33354306 1.12723398 14.39544296 0.000000
-2.18749189 1.17526400 14.73736763 0.000000
-2.35255289 1.11400902 14.40586376 0.000000
-2.22793293 1.15366602 14.73589039 0.000000
-2.20859194 1.16460896 14.73712254 0.000000
-2.33843899 1.10223901 14.49629593 0.000000
-2.26507592 1.11954105 14.64834595 0.000000
-2.24205899 1.12899303 14.64436722 0.000000
-2.22705603 1.15601802 14.65537262 0.000000
-2.14088297 1.08127403 14.75188732 0.000000
-2.27557611 1.10760403 14.51853085 0.000000
-2.16888499 1.12744701 14.63558197 0.000000
-2.30482793 1.12758303 14.38800430 0.000000
-2.15848303 1.16348600 14.74805832 0.000000
-2.31414294 1.09956503 14.38820553 0.000000
-2.17802191 1.17356896 14.74187565 0.000000
-1.92623901 1.43344903 14.64689827 0.000000
-1.86974895 1.35338295 14.64556503 0.000000
-2.25055289 1.48004198 14.36237907 0.000000
-2.30408597 1.45843804 14.30931473 0.000000
-1.85971403 1.40423095 14.68719482 0.000000
-1.87563705 1.40089297 14.69092941 0.000000
-2.24103999 1.45511901 14.38630676 0.000000
-1.87910700 1.35248303 14.62908268 0.000000
-2.25012112 1.46393597 14.39251995 0.000000
-1.86083603 1.37435997 14.62547588 0.000000
-1.86550796 1.36050606 14.66861153 0.000000
-2.28660798 1.44695497 14.31396770 0.000000
-2.28996801 1.44796503 14.31344891 0.000000
-1.50335896 1.21747398 14.21118546 0.000000
-1.50909197 1.22581899 14.20863914 0.000000
-1.06121600 1.17845094 14.48861217 0.000000
-1.54939604 1.25685203 14.19673443 0.000000
-1.07432795 1.19622600 14.49888611 0.000000
-1.06423104 1.21362102 14.49468422 0.000000
-1.60443902 1.29567695 14.24847794 0.000000
-1.08081102 1.29270804 14.42400932 0.000000
-1.62051797 1.32220900 14.24750137 0.000000
-1.63311899 1.32348001 14.23036385 0.000000
-1.07953501 1.29586995 14.45017147 0.000000
-1.54653704 1.23880994 14.27706337 0.000000
-1.12254095 1.19884706 14.43237591 0.000000
-1.12544799 1.19661105 14.43449306 0.000000
-1.56047595 1.26471496 14.27258015 0.000000
-1.13004100 1.21206105 14.44594574 0.000000
-1.59159505 1.31643796 14.17313099 0.000000
-1.58647501 1.28306305 14.19805431 0.000000
-1.05683601 1.26693201 14.47962570 0.000000
-1.03665698 1.28171504 14.47755527 0.000000
-1.56011105 1.26809597 14.19377232 0.000000
-1.04524505 1.24824297 14.48562145 0.000000
-1.07318699 1.25515997 14.48126602 0.000000
-1.47867095 1.23655903 14.28184128 0.000000
-1.48239601 1.25472498 14.26583195 0.000000
-1.09589505 1.13054001 14.43693924 0.000000
-1.48907697 1.24936998 14.27855778 0.000000
-1.51671195 1.28505504 14.26784420 0.000000
-1.05989695 1.17390597 14.42531395 0.000000
-1.06624806 1.17833900 14.42216110 0.000000
-1.57212198 1.24416494 14.23295498 0.000000
-1.58026195 1.24913895 14.24622726 0.000000
-1.08422399 1.25184405 14.47653008 0.000000
-1.08978605 1.25041795 14.47387505 0.000000
-1.56546104 1.23594105 14.23068905 0.000000
-1.54419804 1.20499396 14.23795700 0.000000
-1.12101495 1.19902003 14.49698830 0.000000
-1.12679994 1.20294404 14.48915672 0.000000
-1.03492200 1.17203605 14.44868469 0.000000
-1.49948895 1.30199802 14.21798611 0.000000
-1.00766397 1.20961702 14.43251038 0.000000
-1.53465199 1.29913604 14.18821907 0.000000
-1.52900600 1.30601597 14.19128036 0.000000
-1.02193403 1.21632802 14.46626854 0.000000
-1.51233101 1.30451298 14.20167255 0.000000
-1.51226902 1.29025197 14.20288086 0.000000
-1.02459705 1.20211506 14.46038342 0.000000
-1.51979303 1.33512104 14.23454285 0.000000
-1.50178897 1.30103195 14.24264145 0.000000
-1.02174795 1.19981396 14.42249107 0.000000
-1.48723900 1.27833998 14.24207020 0.000000
-1.03630698 1.18152702 14.42823124 0.000000
-1.51507294 1.26117098 14.28120136 0.000000
-1.12561703 1.17755306 14.42907238 0.000000
-1.12791395 1.17534697 14.42998505 0.000000
-1.53146601 1.27765501 14.27624226 0.000000
-1.52082098 1.26421595 14.28071690 0.000000
-1.10513496 1.21109605 14.42036343 0.000000
-1.70811903 1.41081703 14.18453693 0.000000
-1.68404198 1.42133999 14.23465919 0.000000
-1.69479895 1.40214705 14.22963524 0.000000
-1.68501401 1.40166497 14.15155315 0.000000
-2.55388093 0.30452400 14.39213943 0.000000
-2.57389498 0.30884799 14.40631485 0.000000
-2.55368209 0.31145701 14.43023205 0.000000
-2.56478500 0.29707500 14.39858627 0.000000
-2.56912088 0.30555600 14.42281914 0.000000
-2.57739091 0.32002699 14.44223881 0.000000
-2.51750493 0.34431499 14.38411427 0.000000
-2.52030492 0.34393400 14.41019535 0.000000
-2.58534098 0.35795599 14.45121098 0.000000
-2.58193994 0.35891601 14.40431595 0.000000
-2.54391003 0.31309101 14.39864063 0.000000
-2.52743006 0.33345300 14.39244461 0.000000
-2.58273411 0.34723100 14.41779709 0.000000
-2.30503893 1.30320704 14.45233822 0.000000
-2.04414797 1.30830204 14.61308479 0.000000
-2.28894806 1.35159302 14.44054317 0.000000
-1.99823403 1.33806396 14.61094856 0.000000
-2.27919507 1.33717895 14.45099545 0.000000
-2.01539612 1.32047498 14.60975933 0.000000
-2.27455497 1.30828202 14.46395111 0.000000
-2.04376197 1.29704499 14.60947037 0.000000
-2.31559610 1.45077300 14.39476299 0.000000
-1.90394700 1.41153502 14.60721588 0.000000
-1.90645695 1.41724706 14.60897732 0.000000
-1.91207397 1.39536595 14.60539246 0.000000
-2.47531605 0.42385799 14.45746326 0.000000
-2.46673894 0.41834000 14.43614960 0.000000
-2.44605303 0.46858299 14.43760967 0.000000
-2.58022904 0.47726300 14.51728916 0.000000
-2.57820702 0.47439200 14.51961136 0.000000
-2.59856701 0.48254499 14.48894978 0.000000
-2.58706093 0.47742000 14.50609589 0.000000
-2.47780490 0.39800999 14.43150997 0.000000
-2.45543909 0.42394301 14.41834068 0.000000
-2.58686399 0.44606000 14.49565125 0.000000
-2.59672809 0.42331499 14.47358608 0.000000
-2.58553290 0.43809199 14.49545956 0.000000
-2.50892591 0.36979300 14.46996117 0.000000
-2.52316809 0.34363201 14.48235321 0.000000
-2.51609492 0.36150900 14.49125290 0.000000
-2.51624608 0.35877100 14.48380280 0.000000
-2.57353902 0.35886800 14.50146961 0.000000
-2.57550097 0.38414499 14.48873138 0.000000
-2.57064891 0.36798799 14.51198101 0.000000
-2.58359599 0.37922600 14.45561504 0.000000
-2.57893801 0.39358199 14.47262192 0.000000
-2.53231001 0.33280399 14.46156788 0.000000
-2.52885389 0.33613700 14.46181679 0.000000
-2.52979803 0.33463299 14.48913383 0.000000
-2.57901502 0.33865100 14.48241806 0.000000
-2.57429910 0.35772499 14.49850559 0.000000
-2.45305705 0.67739099 14.22093487 0.000000
-2.51704001 0.68044901 14.07676506 0.000000
-2.53409410 0.71996802 14.21070862 0.000000
-2.50052309 0.67290503 14.06448174 0.000000
-2.60544896 0.67961198 14.41333580 0.000000
-2.60244393 0.67355800 14.44114304 0.000000
-2.43435693 0.60411000 14.39571667 0.000000
-2.57686806 0.64054900 14.51116180 0.000000
-2.42303300 0.61162698 14.41087341 0.000000
-2.55608797 0.66551000 14.52117062 0.000000
-2.55427098 0.65357000 14.53747272 0.000000
-2.51717210 0.72267801 14.44695473 0.000000
-2.55125594 0.69596303 14.45340633 0.000000
-2.44105101 0.56854200 14.36888695 0.000000
-2.60776496 0.62154698 14.48175526 0.000000
-2.43855190 0.57665700 14.37759781 0.000000
-2.59879899 0.61839497 14.49293423 0.000000
-2.45442200 0.69195098 14.40579033 0.000000
-2.43967605 0.62528902 14.38003159 0.000000
-2.44300389 0.64357698 14.38796902 0.000000
-2.55419302 0.68762499 14.47415447 0.000000
-2.58730102 0.65094203 14.48907185 0.000000
-2.43848205 0.61193800 14.37536430 0.000000
-2.56916904 0.66604298 14.49665928 0.000000
-2.61856389 0.54477102 14.47612572 0.000000
-2.44935894 0.74112600 14.41888142 0.000000
-2.50347400 0.74005800 14.44868755 0.000000
-2.51294708 0.73690099 14.45976067 0.000000
-2.53033590 0.71208203 14.51330471 0.000000
-2.43665195 0.68649203 14.41570568 0.000000
-2.53557110 0.70435101 14.48223782 0.000000
-2.43221688 0.56628698 14.40408707 0.000000
-2.57012010 0.63298601 14.52878857 0.000000
-2.57194400 0.59570497 14.54601002 0.000000
-2.44100499 0.53831100 14.39504528 0.000000
-2.58156395 0.58971602 14.53155994 0.000000
-2.42320609 0.63919502 14.41278362 0.000000
-2.53657389 0.70251697 14.49846363 0.000000
-2.43490195 0.64749300 14.40686703 0.000000
-2.55071998 0.68043298 14.50999165 0.000000
-2.50998211 0.74992597 14.47646618 0.000000
-2.44529700 0.69314700 14.41172791 0.000000
-2.39071798 0.60587698 14.43777275 0.000000
-2.41815901 0.60506600 14.41707516 0.000000
-2.41605711 0.58933598 14.42043686 0.000000
-2.53287005 0.65945500 14.57395077 0.000000
-2.52873397 0.67472899 14.56606865 0.000000
-2.53812408 0.66819900 14.55423832 0.000000
-2.39915395 0.63037401 14.42999554 0.000000
-2.37419605 0.64753097 14.45139790 0.000000
-2.38405991 0.63644898 14.44274807 0.000000
-2.49029493 0.71429098 14.62124443 0.000000
-2.49186110 0.68812698 14.63197899 0.000000
-2.49214506 0.70542902 14.62214565 0.000000
-2.49301600 0.68103600 14.63337708 0.000000
-2.52113008 0.68226397 14.57447910 0.000000
-2.45175195 0.44027501 14.41188240 0.000000
-2.44856191 0.47682601 14.41633224 0.000000
-2.60130906 0.51863998 14.49466896 0.000000
-2.60725403 0.50445300 14.47990704 0.000000
-2.45267391 0.43923900 14.40951157 0.000000
-2.61256289 0.50851899 14.47672176 0.000000
-1.35749495 1.06059694 14.56048203 0.000000
-1.32186198 1.06970501 14.57417011 0.000000
-1.32603598 1.06928396 14.56969929 0.000000
-1.33888602 1.05092502 14.50342083 0.000000
-1.33076203 1.05400896 14.50236320 0.000000
-1.37678397 1.02858901 14.50306988 0.000000
-1.34419703 1.02298903 14.48831367 0.000000
-1.36365998 1.00659001 14.48681164 0.000000
-1.48577905 1.02078795 14.38003159 0.000000
-1.26388896 0.95880401 14.48199463 0.000000
-1.24330497 0.95238203 14.48789215 0.000000
-1.28668106 0.94548601 14.48023891 0.000000
-1.38926697 1.04475999 14.54531384 0.000000
-1.35843503 1.06097496 14.54827404 0.000000
-1.60634005 1.03175604 14.36160755 0.000000
-1.35744596 1.04714203 14.51216125 0.000000
-1.34856403 1.06119204 14.53682137 0.000000
-1.27657700 1.01680398 14.61695480 0.000000
-1.31175900 1.03050900 14.61490631 0.000000
-1.26768899 1.03795302 14.60485744 0.000000
-1.25508797 1.00434399 14.61962414 0.000000
-1.25120699 1.01910603 14.61059666 0.000000
-1.22712100 0.92855603 14.54070568 0.000000
-1.21996105 0.95486701 14.56239510 0.000000
-1.21250498 0.94060498 14.52136612 0.000000
-1.21496999 0.94995099 14.53669643 0.000000
-1.31290495 1.01003098 14.47511768 0.000000
-1.29754102 1.01350498 14.47402859 0.000000
-1.31006503 0.99647897 14.47065353 0.000000
-1.26802504 0.99606401 14.46690559 0.000000
-1.30569601 0.98036402 14.47045898 0.000000
-1.31298995 0.99210602 14.47089481 0.000000
-1.32776594 0.99185002 14.47218800 0.000000
-2.32045388 0.56961900 14.70600986 0.000000
-2.29055405 0.51922899 14.64955711 0.000000
-2.32285500 0.51593900 14.69385433 0.000000
-2.32776499 0.51364702 14.69481277 0.000000
-2.23269892 0.56741601 14.63537407 0.000000
-2.22918797 0.56973797 14.63564587 0.000000
-2.27820897 0.58571899 14.71295643 0.000000
-2.23491096 0.54673803 14.65676022 0.000000
-2.26310611 0.53593397 14.70193481 0.000000
-2.27977991 0.56461197 14.70813656 0.000000
-1.25724006 0.82517600 14.60563374 0.000000
-2.41374397 0.71689200 14.09274960 0.000000
-2.40964293 0.70599502 14.07155991 0.000000
-2.52075505 0.74388099 14.11012840 0.000000
-2.61645198 0.59839797 14.47077370 0.000000
-2.44255900 0.53638899 14.38248825 0.000000
-2.61100006 0.59459102 14.48219109 0.000000
-2.45050406 0.50067002 14.39395332 0.000000
-2.59039807 0.52696198 14.51589966 0.000000
-2.43924689 0.51936197 14.41324520 0.000000
-2.43971801 0.50756699 14.42134953 0.000000
-2.59199500 0.56408101 14.51043606 0.000000
-2.59372497 0.57586199 14.50666332 0.000000
-2.45772290 0.50467801 14.18764782 0.000000
-2.43784499 0.57466298 14.14392471 0.000000
-2.55289102 0.62035698 14.11443520 0.000000
-2.28663611 1.37970901 14.34930897 0.000000
