0.05680900 0.24303500 4.15938616 0.000000
0.21928699 0.36770001 4.25377703 0.000000
0.01844800 0.27648300 4.15368795 0.000000
0.25148100 0.34487200 4.23008680 0.000000
0.18765099 0.43022999 4.26817083 0.000000
0.19403601 0.42667401 4.27125406 0.000000
0.19919001 0.32790300 4.21614313 0.000000
0.22512500 0.33030400 4.20656681 0.000000
0.21263599 0.33867499 4.21429396 0.000000
0.19534700 0.47387901 4.16153288 0.000000
0.17490301 0.46124300 4.10202885 0.000000
0.04070300 0.38528401 4.06970978 0.000000
0.08044000 0.62678200 4.21919394 0.000000
0.06805200 0.63768399 4.19153500 0.000000
0.04362100 0.61649698 4.24888277 0.000000
-0.03289500 0.54668200 4.19147587 0.000000
-0.04564600 0.57877702 4.21333504 0.000000
0.03627200 0.61158198 4.25950289 0.000000
-0.03963200 0.56606001 4.21948814 0.000000
0.02128600 0.62017798 4.22965908 0.000000
0.02781300 0.63816297 4.17248106 0.000000
-0.02063100 0.60788399 4.18778610 0.000000
-0.01718200 0.62201601 4.13348103 0.000000
0.03253600 0.62887400 4.22074699 0.000000
0.02211600 0.61770803 4.24218988 0.000000
-0.03593600 0.59477103 4.20681715 0.000000
0.07195900 0.58773100 3.94775701 0.000000
0.15615000 0.54457301 4.14887094 0.000000
0.14040200 0.56902599 4.13768387 0.000000
0.09218700 0.62067699 4.17514706 0.000000
-0.02805400 0.58325702 4.11816978 0.000000
-0.02717600 0.56937200 4.10678482 0.000000
0.06566600 0.67607200 4.07838106 0.000000
-0.01195900 0.63731402 4.06917381 0.000000
-0.00473300 0.65345800 4.03808308 0.000000
-0.02961500 0.60983902 4.14255381 0.000000
0.03944000 0.64592701 4.15289783 0.000000
-0.00942400 0.62718302 4.13258600 0.000000
0.04414900 0.69129699 4.05495024 0.000000
0.05243900 0.68131500 4.07139921 0.000000
0.03946400 0.65368998 4.13144493 0.000000
0.04288300 0.66223401 4.10262918 0.000000
-0.01717000 0.62717903 4.09834194 0.000000
-0.01950900 0.62307203 4.10956192 0.000000
0.00770200 0.67276502 3.99926901 0.000000
0.01526600 0.68295503 4.00483179 0.000000
0.07667400 0.70950300 4.01595211 0.000000
-0.03507100 0.59917498 4.17274189 0.000000
-0.22295000 0.40282100 5.53116417 0.000000
-0.23799799 0.43421799 5.54260588 0.000000
-0.23157699 0.43791801 5.53771305 0.000000
-0.24164701 0.39586699 5.54377413 0.000000
-0.25930101 0.41624999 5.55473423 0.000000
-0.25801200 0.40203601 5.55293322 0.000000
-0.34282601 0.59151298 5.53442097 0.000000
-0.34266600 0.59450901 5.56304884 0.000000
-0.34683600 0.58855498 5.50666380 0.000000
-0.35233900 0.59118402 5.52304077 0.000000
-0.40033901 0.48253500 5.66840792 0.000000
-0.49886301 0.50854200 5.35903692 0.000000
-0.41681999 0.48181599 5.64481211 0.000000
-0.40637401 0.46577999 5.61876297 0.000000
-0.48863700 0.49766999 5.35242891 0.000000
-0.46669099 0.50832200 5.34692621 0.000000
-0.36506999 0.60114998 5.60940790 0.000000
-0.49751401 0.55648500 5.21912622 0.000000
-0.37266001 0.59831399 5.56298494 0.000000
-0.49381500 0.54667801 5.21088791 0.000000
-0.50232899 0.53103602 5.20325518 0.000000
-0.40476701 0.55374599 5.73738623 0.000000
-0.55640900 0.61293697 5.36204195 0.000000
-0.42090100 0.52868700 5.74852419 0.000000
-0.54536498 0.61307400 5.39028120 0.000000
-0.37486100 0.59169698 5.68411779 0.000000
-0.55273497 0.60178298 5.28516293 0.000000
-0.38737601 0.61229497 5.67863703 0.000000
-0.55410802 0.61303598 5.28811979 0.000000
0.28445399 0.34279600 4.23105717 0.000000
-0.00724700 0.22647101 4.11241722 0.000000
0.26410499 0.35724801 4.24115801 0.000000
-0.00731300 0.24190600 4.12571001 0.000000
-0.32635501 0.08111100 5.10229921 0.000000
-0.00891400 0.65030301 4.00508404 0.000000
0.17246000 0.51894498 4.16311598 0.000000
0.15543200 0.54713899 4.15920877 0.000000
-0.21882901 0.48177999 4.48668718 0.000000
-0.21181101 0.45608699 4.50560093 0.000000
-0.18019900 0.44710901 4.46895504 0.000000
-0.30275899 1.07665300 5.00540400 0.000000
-0.50251800 0.96046102 5.01642990 0.000000
-0.49726400 0.96348703 5.02955723 0.000000
-0.31158900 1.08297801 5.00458717 0.000000
-0.48740500 0.97035801 5.03991985 0.000000
-0.33278501 1.13652003 5.09650612 0.000000
-0.50428301 0.89937699 5.16062593 0.000000
-0.34826401 1.17914295 5.11156702 0.000000
-0.50866801 0.91148502 5.14959192 0.000000
-0.26030201 0.96606702 4.93445110 0.000000
-0.45045701 0.91693300 4.91068602 0.000000
-0.26651999 0.95851302 4.93165016 0.000000
-0.45010301 0.91133398 4.90489721 0.000000
-0.28113499 0.90565097 5.02307320 0.000000
-0.44174799 0.84587598 4.97638083 0.000000
-0.43689299 0.87791598 4.99026203 0.000000
-0.36288500 1.07895803 5.08932400 0.000000
-0.45662701 0.90025502 5.14218378 0.000000
-0.37545201 1.12420595 5.11981392 0.000000
-0.46726400 0.90400797 5.12313986 0.000000
-0.45913899 0.88621598 5.17733002 0.000000
-0.39531299 1.11161304 5.07625818 0.000000
-0.39243501 1.10596204 5.07420015 0.000000
-0.34552100 1.07069302 5.00234795 0.000000
-0.34325400 1.07386601 5.00190496 0.000000
-0.46800700 0.97358501 5.08631611 0.000000
-0.35596600 1.08314002 5.01250505 0.000000
-0.47000599 0.97070402 5.11651278 0.000000
-0.46239600 0.97120702 5.09855890 0.000000
-0.31713700 1.12532198 5.05306578 0.000000
-0.50383502 0.95690203 5.08950996 0.000000
-0.33959001 1.18030906 5.08475304 0.000000
-0.33983201 1.17818904 5.09033108 0.000000
-0.51194698 0.92524999 5.18283606 0.000000
-0.51114303 0.93125302 5.13295507 0.000000
-0.50659400 0.92776197 5.03894711 0.000000
-0.32404399 0.94389600 5.00604916 0.000000
-0.32242599 0.94418001 5.01320982 0.000000
-0.30655900 0.91129798 4.98732710 0.000000
-0.41216400 0.88838500 4.96907997 0.000000
-0.23672700 0.97512501 4.97723818 0.000000
-0.48943600 0.88704503 4.92346907 0.000000
-0.49479800 0.90873897 4.93914700 0.000000
-0.30468300 0.90988302 4.95364904 0.000000
-0.28922400 0.86969697 4.94022417 0.000000
-0.38524300 0.85294998 4.91810322 0.000000
-0.37646100 0.83794099 4.89505720 0.000000
-0.29913199 0.88933802 4.96416521 0.000000
-0.40051299 0.88311702 4.93904114 0.000000
-0.21385700 0.91865200 4.90877104 0.000000
-0.20818400 0.92052799 4.91812801 0.000000
-0.44946399 0.81481600 4.84443903 0.000000
-0.46230000 0.83638698 4.86579609 0.000000
-0.24140400 0.94776797 4.92245388 0.000000
-0.22729801 0.93060100 4.91186380 0.000000
-0.45637900 0.88410598 4.88155079 0.000000
-0.44932699 0.85214198 4.86000681 0.000000
-0.27050200 0.89301401 5.01942205 0.000000
-0.41209599 0.80033398 4.96046305 0.000000
-0.23993100 0.84775698 5.00361681 0.000000
-0.41214699 0.78361303 4.95526218 0.000000
-0.26260200 0.89134800 4.89809513 0.000000
-0.41016200 0.84565300 4.85405588 0.000000
-0.40703601 0.84683400 4.85806179 0.000000
-0.28907600 0.93153399 4.93351221 0.000000
-0.42955500 0.89509600 4.89266109 0.000000
-0.41246399 0.88924497 4.89895201 0.000000
-0.19881700 0.87636399 4.98840904 0.000000
-0.45957500 0.77459401 4.92513990 0.000000
-0.22008100 0.91786498 5.00000715 0.000000
-0.47178301 0.81397802 4.93503380 0.000000
-0.24367300 0.49593401 5.36363792 0.000000
-0.28747001 0.56472898 5.46455097 0.000000
-0.28363100 0.56229198 5.45822382 0.000000
-0.28501701 0.56321299 5.46380711 0.000000
-0.25233099 0.54031402 5.44063091 0.000000
-0.26161301 0.54734999 5.47459793 0.000000
-0.24958099 0.53859401 5.47418118 0.000000
-0.25771099 0.54432797 5.45263100 0.000000
-0.53638899 0.86470902 5.85039520 0.000000
-0.29567501 0.53936303 5.38833284 0.000000
-0.28867999 0.54293901 5.39283180 0.000000
-0.29237801 0.51261997 5.36811399 0.000000
-0.40277600 0.55878800 5.73648024 0.000000
-0.55924398 0.61833501 5.35865688 0.000000
-0.38276300 0.57575899 5.71675014 0.000000
-0.56747597 0.61204702 5.33174086 0.000000
-0.26670799 0.82566202 4.91297102 0.000000
-0.36578199 0.79915702 4.90433121 0.000000
-0.36465201 0.79897600 4.89690113 0.000000
-0.28064200 0.85823601 4.91815519 0.000000
-0.37067300 0.81907701 4.89919615 0.000000
-0.37034699 0.81610298 4.90339088 0.000000
-0.11205000 0.35920599 4.63215590 0.000000
-0.31195199 0.92338097 4.96965790 0.000000
-0.32860401 0.95478398 4.97644997 0.000000
-0.40639701 0.90815800 4.94756985 0.000000
-0.43889999 0.94506198 5.17030287 0.000000
-0.43400800 0.91891402 5.22385216 0.000000
-0.27832100 0.87950802 4.91109514 0.000000
-0.37696901 0.83617300 4.88347483 0.000000
-0.38826799 0.84910500 4.88159180 0.000000
-0.29647699 0.91948599 4.93890381 0.000000
-0.38657999 0.86088699 4.90391111 0.000000
-0.39978400 0.88002998 4.90675306 0.000000
-0.19200400 0.88062900 4.98281002 0.000000
-0.46372101 0.77204400 4.91932678 0.000000
-0.19972900 0.91370499 4.97668219 0.000000
-0.48145601 0.83326399 4.92940712 0.000000
-0.26621300 0.44702399 5.56154585 0.000000
-0.28604400 0.44803101 5.57458878 0.000000
-0.26710501 0.43613800 5.56047583 0.000000
-0.52333403 0.39366999 5.31855822 0.000000
-0.27078199 0.45523700 5.56587791 0.000000
-0.31578401 0.44623500 5.59366322 0.000000
-0.28363800 0.45856100 5.57502222 0.000000
-0.53021300 0.39122400 5.29815197 0.000000
-0.37426201 0.43750200 5.58555794 0.000000
-0.38040999 0.45064300 5.61285686 0.000000
-0.39417899 0.45721501 5.61275721 0.000000
-0.49843299 0.47998101 5.35408115 0.000000
-0.48239499 0.45557499 5.35069180 0.000000
-0.38704100 0.42764500 5.55182981 0.000000
-0.36677200 0.41773599 5.54977322 0.000000
-0.46021000 0.42691299 5.35267496 0.000000
-0.46258700 0.47702900 5.34289408 0.000000
-0.45740801 0.47973999 5.34221315 0.000000
-0.32378700 0.39420801 5.47303581 0.000000
-0.34460399 0.40598699 5.51258421 0.000000
-0.35304201 0.40400001 5.50340986 0.000000
-0.34908101 0.41843799 5.55805779 0.000000
-0.46106300 0.41572601 5.35480881 0.000000
-0.43849799 0.41528201 5.35426807 0.000000
-0.32316801 0.39866301 5.48852682 0.000000
-0.32187501 0.40534899 5.50929499 0.000000
-0.47784999 0.40335399 5.35501194 0.000000
-0.27882701 0.49328101 5.57896709 0.000000
-0.30329001 0.46815899 5.59002495 0.000000
-0.29437399 0.48398399 5.58764410 0.000000
-0.52140898 0.42999500 5.32323980 0.000000
-0.52874601 0.43093899 5.30417109 0.000000
-0.29200801 0.51423401 5.59656191 0.000000
-0.31618801 0.49216700 5.60523796 0.000000
-0.31932899 0.49840099 5.61031389 0.000000
-0.54608101 0.46293801 5.27258205 0.000000
-0.54205000 0.44347200 5.27266407 0.000000
-0.21121600 0.50381100 5.42625904 0.000000
-0.21882100 0.43871799 5.52490616 0.000000
-0.22171301 0.45174199 5.51841402 0.000000
-0.21276499 0.45820701 5.50271416 0.000000
-0.22340900 0.46110401 5.51328707 0.000000
-0.22672100 0.49801201 5.48901987 0.000000
-0.22497800 0.50732201 5.47980213 0.000000
-0.20329000 0.44620401 5.49824905 0.000000
-0.20914599 0.47928300 5.47931194 0.000000
-0.21717399 0.50080901 5.47410917 0.000000
-0.19728900 0.47018999 5.46721315 0.000000
-0.25506800 0.53473997 5.49866199 0.000000
-0.26606199 0.54151398 5.50665092 0.000000
-0.26882699 0.52984601 5.53055477 0.000000
-0.22848800 0.51944101 5.47758007 0.000000
-0.23400000 0.51902902 5.48782206 0.000000
-0.26157099 0.47935000 5.56375504 0.000000
-0.25661099 0.48615801 5.55084705 0.000000
-0.26284501 0.49026299 5.56364298 0.000000
-0.26112801 0.48814899 5.56038618 0.000000
-0.23140800 0.50473201 5.48959303 0.000000
-0.29222700 0.40553200 5.54366779 0.000000
-0.29583001 0.39993700 5.51704311 0.000000
-0.25372800 0.38099399 5.52599478 0.000000
-0.26816699 0.39030200 5.54093790 0.000000
-0.31225899 0.42781699 5.56057978 0.000000
-0.29591900 0.40944499 5.54340410 0.000000
-0.51466203 0.40273800 5.32977486 0.000000
-0.32353500 0.41984200 5.55027103 0.000000
-0.31929699 0.42982599 5.56671810 0.000000
-0.50166601 0.41123199 5.33921719 0.000000
-0.49456000 0.41157401 5.34516478 0.000000
-0.37936699 0.48588401 5.65367985 0.000000
-0.50517100 0.50386500 5.35842085 0.000000
-0.37476900 0.49065799 5.65360403 0.000000
-0.52311301 0.51029998 5.33911705 0.000000
-0.51910901 0.49182701 5.33566093 0.000000
-0.53788799 0.63731903 5.40565014 0.000000
-0.45189500 0.55305201 5.76940823 0.000000
-0.48098600 0.60569203 5.78834105 0.000000
-0.53790700 0.71894097 5.38212299 0.000000
-0.55001003 0.74567598 5.37012720 0.000000
-0.59513098 0.77460498 5.88965702 0.000000
-0.58542502 0.74408698 5.87983084 0.000000
-0.57045001 0.91786498 5.35007477 0.000000
-0.42349800 0.53935498 5.75466919 0.000000
-0.55253202 0.62838501 5.38260984 0.000000
-0.41943401 0.57569402 5.75592804 0.000000
-0.55416203 0.65491498 5.37821579 0.000000
-0.47198600 0.64698398 5.79370403 0.000000
-0.48042801 0.66383398 5.80351305 0.000000
-0.56855100 0.78014600 5.34222317 0.000000
-0.47287399 0.62509400 5.78931713 0.000000
-0.47884199 0.63251799 5.79442787 0.000000
-0.55491000 0.76441199 5.36162806 0.000000
-0.56479299 0.79320300 5.89137077 0.000000
-0.14797400 0.85166800 4.92003298 0.000000
-0.46428701 0.73819399 4.86076403 0.000000
-0.45708799 0.73195499 4.83936691 0.000000
-0.19011100 0.90482098 4.95641899 0.000000
-0.19178800 0.90438902 4.96645117 0.000000
-0.47546300 0.80325001 4.89379692 0.000000
-0.22006001 0.94815499 4.97692108 0.000000
-0.48099300 0.83204001 4.90264416 0.000000
-0.23022400 0.96352202 4.98897314 0.000000
-0.24478200 0.99405402 5.00370979 0.000000
-0.25034499 1.00650501 5.01073503 0.000000
-0.50809199 0.91377503 4.96926689 0.000000
-0.27279800 1.04796696 5.02005005 0.000000
-0.49523199 0.86178398 5.25250816 0.000000
-0.37922499 1.15198004 5.13384008 0.000000
-0.37799501 1.17683804 5.14056921 0.000000
-0.55639100 0.84336603 5.81894398 0.000000
-0.54372001 0.86383498 5.79723692 0.000000
-0.53539801 0.86214399 5.83170509 0.000000
-0.59609503 0.93484300 5.22877216 0.000000
-0.54438698 0.84458703 5.84628582 0.000000
-0.52634901 0.89474303 5.80610609 0.000000
-0.59722298 0.94375902 5.19809103 0.000000
-0.60783398 0.95591098 5.20081615 0.000000
-0.59357703 0.86810398 5.78554201 0.000000
-0.52983803 0.94915098 5.21185207 0.000000
-0.55260301 0.87154901 5.78710079 0.000000
-0.56317401 0.94154000 5.21539688 0.000000
-0.55141699 0.93203998 5.20400190 0.000000
-0.55420899 0.93561000 5.19129801 0.000000
-0.56247997 0.95696598 5.16482210 0.000000
-0.52917701 0.87553400 5.82974720 0.000000
-0.54121602 0.85611200 5.85653210 0.000000
-0.61740601 0.82951200 5.81284523 0.000000
-0.59936798 0.85681403 5.78846121 0.000000
-0.52329803 0.95777702 5.23785210 0.000000
-0.59138900 0.87138098 5.76780987 0.000000
-0.52544099 0.97649002 5.18341017 0.000000
-0.04727700 0.59263498 4.27220583 0.000000
0.04450900 0.61850798 4.29399490 0.000000
0.02107300 0.61152703 4.30519676 0.000000
0.20007101 0.44550699 4.21130085 0.000000
-0.00584100 0.37954900 4.13432312 0.000000
0.18711901 0.45818001 4.23201084 0.000000
0.02013000 0.61378801 4.29546213 0.000000
0.00149000 0.61313498 4.30085516 0.000000
0.18189600 0.35957801 4.15677309 0.000000
0.10124600 0.31482801 4.13182116 0.000000
0.19291000 0.36513999 4.18171787 0.000000
0.09278100 0.30844700 4.13846111 0.000000
0.05481100 0.61925501 4.29493523 0.000000
0.05846700 0.61390698 4.30306387 0.000000
-0.07331900 0.55772501 4.24937916 0.000000
0.13882001 0.54090500 4.03616095 0.000000
0.03382200 0.48544499 4.05455399 0.000000
0.09077000 0.49717700 4.01186895 0.000000
0.15252700 0.54410398 4.12875700 0.000000
0.00806500 0.49956799 4.06634188 0.000000
0.05714800 0.68877900 4.04004002 0.000000
-0.00194000 0.65337098 4.04336786 0.000000
0.06435800 0.69063699 4.02766705 0.000000
-0.00495400 0.65118903 4.02324820 0.000000
0.05480800 0.64924097 4.16777420 0.000000
-0.03663700 0.60117698 4.17223692 0.000000
0.06731600 0.67580098 4.07962322 0.000000
0.07568400 0.68911999 4.03621006 0.000000
0.04067500 0.69183099 3.99033403 0.000000
0.07328000 0.69953603 4.05566216 0.000000
0.02712100 0.70002198 3.98215008 0.000000
-0.01824200 0.63395703 4.07659101 0.000000
-0.03423700 0.58316600 4.13996315 0.000000
0.05915700 0.62621897 4.19845390 0.000000
0.05546000 0.61545402 4.22943211 0.000000
0.06273100 0.60677499 4.23402786 0.000000
-0.04183700 0.58705503 4.19821405 0.000000
-0.03811100 0.55923802 4.18676615 0.000000
0.04281500 0.63011199 4.22926807 0.000000
-0.02436700 0.61475098 4.12190008 0.000000
0.07009900 0.67109197 4.08677912 0.000000
0.00603100 0.66085202 3.98942900 0.000000
0.01023600 0.68274099 3.98112988 0.000000
-0.02554000 0.60843599 4.14025211 0.000000
-0.02125900 0.60940999 4.12154102 0.000000
0.05408100 0.64305300 4.17779779 0.000000
-0.04807100 0.61658698 4.30666780 0.000000
-0.05216100 0.63040602 4.32115984 0.000000
-0.40653899 1.18473303 5.13803577 0.000000
-0.40855899 1.19956803 5.13885212 0.000000
-0.31215599 1.01638496 5.06281710 0.000000
-0.47555399 0.91973901 5.04429388 0.000000
-0.46752900 0.90588099 5.01633215 0.000000
-0.27278599 0.92752397 5.03316593 0.000000
-0.26775101 0.93954098 5.03391790 0.000000
-0.45311800 0.84139597 4.96977186 0.000000
-0.34920999 1.10479200 5.10371304 0.000000
-0.47356701 0.90094000 5.12872982 0.000000
-0.36375800 1.14051700 5.12397480 0.000000
-0.48290801 0.86059099 5.23216105 0.000000
-0.48476100 0.88569897 5.16819286 0.000000
-0.22409099 0.79764098 4.98045206 0.000000
-0.38760599 0.72373998 4.92887592 0.000000
-0.39618400 0.73573703 4.93622303 0.000000
-0.20652500 0.79844499 4.98623610 0.000000
-0.41784400 0.75950098 4.94936705 0.000000
-0.43044499 0.49979201 5.71310902 0.000000
-0.49991700 0.58882201 5.38774395 0.000000
-0.44095200 0.50520998 5.72145081 0.000000
-0.42665499 0.60123497 5.62192011 0.000000
-0.47080499 0.61625600 5.27551222 0.000000
-0.42639500 0.60961998 5.63493204 0.000000
-0.41703600 0.61407799 5.63711405 0.000000
-0.49805999 0.60743201 5.25386000 0.000000
-0.46127701 0.57112199 5.63582993 0.000000
-0.46621099 0.61575502 5.28352022 0.000000
-0.46379799 0.57394999 5.64136982 0.000000
-0.46320501 0.63066602 5.31038380 0.000000
-0.48027700 0.61815000 5.37481689 0.000000
-0.46469599 0.52357101 5.72353697 0.000000
-0.41879100 0.51615101 5.73808479 0.000000
-0.43764001 0.51507598 5.74864197 0.000000
-0.52792901 0.61230600 5.40702677 0.000000
-0.40161401 0.61401701 5.73323584 0.000000
-0.57193899 0.65635699 5.32281590 0.000000
-0.40044999 0.59069097 5.74193907 0.000000
-0.57134700 0.64547801 5.34535503 0.000000
-0.51699299 0.63602602 5.80817509 0.000000
-0.49490499 0.59945899 5.78191423 0.000000
-0.49395800 0.59927601 5.78292513 0.000000
-0.51986599 0.72772998 5.37624407 0.000000
-0.02707900 0.29356200 4.16500187 0.000000
0.25429800 0.38696101 4.26766777 0.000000
0.22472000 0.40605599 4.26053810 0.000000
0.19945601 0.41973501 4.26320696 0.000000
0.24371199 0.39535800 4.25804377 0.000000
0.17178600 0.32188100 4.25113583 0.000000
0.19645700 0.38544601 4.26915693 0.000000
0.21101500 0.36812699 4.25236416 0.000000
0.03361900 0.63882399 4.17153311 0.000000
0.03713500 0.63046402 4.21242285 0.000000
-0.02022700 0.60974598 4.18029404 0.000000
0.06535800 0.63709003 4.20093918 0.000000
-0.02952000 0.60441500 4.16244316 0.000000
0.08190000 0.62560302 4.18788385 0.000000
0.09999400 0.61576998 4.18849897 0.000000
-0.04267800 0.54369301 4.13193798 0.000000
0.16143200 0.53658301 4.20385122 0.000000
-0.03053300 0.45589000 4.12776184 0.000000
0.16037300 0.54037601 4.18001080 0.000000
-0.03594200 0.48122600 4.12749195 0.000000
0.01495400 0.40004000 4.08715010 0.000000
-0.06304300 0.55210203 4.16872787 0.000000
0.07177700 0.63051999 4.22720623 0.000000
-0.06524200 0.56459498 4.18319798 0.000000
0.17406499 0.51464200 4.19393301 0.000000
0.18509500 0.49763399 4.17411995 0.000000
-0.01077100 0.44596201 4.10211802 0.000000
0.18437600 0.47943699 4.22310209 0.000000
-0.02251100 0.40931401 4.14578819 0.000000
0.16689000 0.49961701 4.25076294 0.000000
0.14331099 0.55045402 4.26717281 0.000000
-0.06050300 0.46818200 4.17989922 0.000000
0.13793799 0.55349100 4.28157282 0.000000
-0.06971400 0.48196599 4.18920422 0.000000
0.12277300 0.59489900 4.21085501 0.000000
-0.04302800 0.50193697 4.13162279 0.000000
0.13586800 0.57879901 4.21279383 0.000000
-0.04374300 0.47427699 4.14131212 0.000000
0.08663100 0.66870499 4.09159184 0.000000
-0.01529100 0.61618501 4.04853678 0.000000
-0.01323300 0.59786099 4.05331421 0.000000
0.11385200 0.60155398 4.17061996 0.000000
-0.02396100 0.52654999 4.10437298 0.000000
0.11360100 0.60307598 4.18878603 0.000000
-0.03848000 0.51878202 4.12483883 0.000000
0.15011400 0.49146101 4.06548977 0.000000
0.14463900 0.48700100 4.05437613 0.000000
0.16662200 0.42214701 4.09589481 0.000000
0.08650700 0.39943099 4.06275177 0.000000
0.08524800 0.35968700 4.08463287 0.000000
0.07258400 0.35201800 4.08596706 0.000000
0.21126400 0.45528001 4.15680885 0.000000
0.19402900 0.48230600 4.17521715 0.000000
0.00355100 0.42698401 4.09190083 0.000000
0.00512300 0.43596801 4.08908176 0.000000
0.15094300 0.55170900 4.13840580 0.000000
0.14145100 0.55764198 4.08231211 0.000000
0.07660700 0.53727299 3.98584604 0.000000
0.09020200 0.53371602 3.98713899 0.000000
0.16078100 0.48087201 4.09055519 0.000000
0.13536599 0.50660700 4.03227377 0.000000
0.07988600 0.44684601 4.04553604 0.000000
0.14884400 0.50627202 4.06579685 0.000000
0.09532200 0.45325100 4.04058790 0.000000
0.14292200 0.49913701 4.04979897 0.000000
0.11371700 0.44396499 4.04818392 0.000000
0.16505000 0.46551001 4.08956718 0.000000
0.18221501 0.44620401 4.10454988 0.000000
0.17839900 0.47099200 4.11638308 0.000000
0.09221800 0.37046999 4.07950497 0.000000
0.08645900 0.38437900 4.06904411 0.000000
0.08640700 0.41682100 4.05755377 0.000000
0.05422900 0.42481101 4.06398106 0.000000
0.06424800 0.53851098 3.98964906 0.000000
0.12666000 0.57418799 3.99087310 0.000000
0.07748200 0.67278701 4.09702015 0.000000
0.08405200 0.65653902 4.11030912 0.000000
0.06125300 0.66069102 4.13259411 0.000000
-0.02172800 0.60929400 4.11095715 0.000000
0.06135200 0.66770500 4.11451006 0.000000
-0.01512500 0.57506800 4.07486820 0.000000
0.10101500 0.63546503 4.11150312 0.000000
0.06952100 0.62266803 3.93278193 0.000000
0.08918200 0.67688602 4.07521915 0.000000
-0.01099800 0.63525999 4.01462412 0.000000
0.06738000 0.67432702 4.09888220 0.000000
0.08336500 0.68775803 4.06610489 0.000000
0.15905599 0.27246401 4.17802620 0.000000
0.17028800 0.27173999 4.20179510 0.000000
0.13354599 0.25999200 4.20267105 0.000000
0.10810700 0.40443200 4.06715202 0.000000
0.11447900 0.40263700 4.06945276 0.000000
0.00065400 0.65601200 4.08125114 0.000000
0.02824900 0.66933799 4.09281588 0.000000
0.00749200 0.66194999 4.08176184 0.000000
0.07784800 0.62293500 3.93505597 0.000000
0.01071800 0.67415100 4.05991602 0.000000
0.03786000 0.69689900 4.04566622 0.000000
0.11763700 0.60267001 3.96356797 0.000000
0.16738400 0.32839799 4.14280415 0.000000
0.13143399 0.30987301 4.13187981 0.000000
0.17626099 0.35582501 4.14886189 0.000000
0.12054000 0.29750600 4.14612389 0.000000
0.12887600 0.53301001 4.01233196 0.000000
0.01388800 0.67170602 4.01042891 0.000000
0.02660900 0.68197501 4.01932907 0.000000
0.05925100 0.68857300 4.00982523 0.000000
0.13487500 0.49358100 4.03784704 0.000000
0.11935300 0.55159003 3.98965096 0.000000
0.10691200 0.45905501 4.03819513 0.000000
0.11339900 0.36653501 4.09018898 0.000000
0.12969400 0.45465100 4.05145311 0.000000
0.12413100 0.55933702 3.99239898 0.000000
0.08594000 0.56333500 3.96622896 0.000000
0.19773500 0.43240401 4.21896601 0.000000
0.20625000 0.43526399 4.20272589 0.000000
0.02261300 0.33937100 4.13788986 0.000000
0.20957901 0.41312400 4.18898296 0.000000
0.02552200 0.34342599 4.11769009 0.000000
0.10317200 0.68342102 4.03341198 0.000000
0.10484800 0.68487197 4.02094221 0.000000
0.10589900 0.66555601 4.05890894 0.000000
0.10945900 0.65700299 4.06131315 0.000000
-0.00255200 0.61748302 4.00066185 0.000000
0.00114200 0.61448199 3.99591899 0.000000
0.01183100 0.59894401 3.99126291 0.000000
-0.17013700 0.80592799 4.97424603 0.000000
-0.43179601 0.71020103 4.91495895 0.000000
-0.20059501 0.85143203 4.99041414 0.000000
-0.44239900 0.73731297 4.91852522 0.000000
-0.36149400 1.14630699 5.12516785 0.000000
-0.48665899 0.86836898 5.21576595 0.000000
-0.35471401 1.15519702 5.12192678 0.000000
-0.49533400 0.88377500 5.18080091 0.000000
-0.24290800 0.96576798 5.01757813 0.000000
-0.48271999 0.85225201 4.94946814 0.000000
-0.46952400 0.84188902 4.95552778 0.000000
-0.16821800 0.78846502 4.97658777 0.000000
-0.28483799 1.00058699 5.05344200 0.000000
-0.29248500 1.03194702 5.05786610 0.000000
-0.23667400 0.88613701 5.01345396 0.000000
-0.44733199 0.79405200 4.94760323 0.000000
-0.21393199 0.87510598 4.99826717 0.000000
-0.45201799 0.81235898 4.95327377 0.000000
0.05250500 0.36089301 4.44295502 0.000000
0.05212400 0.37509501 4.44119215 0.000000
0.04356300 0.38339600 4.45094681 0.000000
-0.01362700 0.33688000 4.42207813 0.000000
-0.02339000 0.35297599 4.40090990 0.000000
-0.03724500 0.35476100 4.43438101 0.000000
-0.01599600 0.34265900 4.41129017 0.000000
0.08223800 0.36291999 4.40023422 0.000000
0.08384300 0.35613900 4.39716578 0.000000
0.06575400 0.34312600 4.42245102 0.000000
0.06520000 0.34882799 4.42385912 0.000000
0.00159700 0.32699400 4.41092587 0.000000
0.02491400 0.31445000 4.38891411 0.000000
0.01511700 0.32044700 4.39587688 0.000000
0.31388199 0.28098801 4.19374180 0.000000
0.15983000 0.32804501 4.25403500 0.000000
0.19351600 0.38602400 4.23711300 0.000000
0.19224200 0.40586999 4.24664021 0.000000
0.02240300 0.17424400 4.06008101 0.000000
0.19280800 0.44054300 4.11325884 0.000000
0.21495201 0.43062699 4.14794683 0.000000
0.21545701 0.43444499 4.15481710 0.000000
0.18136001 0.46832401 4.11770391 0.000000
0.02372300 0.42267099 4.08344221 0.000000
-0.00478100 0.34106401 4.21463680 0.000000
0.00034600 0.33358300 4.20194578 0.000000
-0.00231200 0.33961400 4.19299603 0.000000
0.00724500 0.32685000 4.18245888 0.000000
-0.02455800 0.36920300 4.20520306 0.000000
-0.03561500 0.36360499 4.19303513 0.000000
-0.04056400 0.38365099 4.20919514 0.000000
-0.03506000 0.36074299 4.20437384 0.000000
-0.01676100 0.36030799 4.22334814 0.000000
-0.40403599 0.43809500 5.46552086 0.000000
-0.39204499 0.42182800 5.41213799 0.000000
-0.39596200 0.43119699 5.42649412 0.000000
-0.40642399 0.46235201 5.46017790 0.000000
-0.40450701 0.42631501 5.48067999 0.000000
-0.39236200 0.41376701 5.44868898 0.000000
-0.39407501 0.42038199 5.43126011 0.000000
-0.39694899 0.41509700 5.47620678 0.000000
-0.48744199 0.57811302 5.68110085 0.000000
-0.47040999 0.65877002 5.33950901 0.000000
-0.47215000 0.66372597 5.33783913 0.000000
-0.48701799 0.56453800 5.69403791 0.000000
-0.46632800 0.63793498 5.34643078 0.000000
-0.57307798 0.70671201 5.78932619 0.000000
-0.50177199 0.83463597 5.32026911 0.000000
-0.58630502 0.73377699 5.79493284 0.000000
-0.57652098 0.73199099 5.78365421 0.000000
-0.50219601 0.86794001 5.30058813 0.000000
-0.44886300 0.53388399 5.61692190 0.000000
-0.44904000 0.57277298 5.32404518 0.000000
-0.44859800 0.54587799 5.60816717 0.000000
-0.44612199 0.53675002 5.60640478 0.000000
-0.43836501 0.56149203 5.28002691 0.000000
-0.62240100 0.80067801 5.82824278 0.000000
-0.47759601 0.54853803 5.68894815 0.000000
-0.47921500 0.56146502 5.66275215 0.000000
-0.45914599 0.63091397 5.33606100 0.000000
-0.38422999 0.40857700 5.40815496 0.000000
0.00536000 0.63520700 3.97760201 0.000000
0.05589400 0.51227999 4.01714516 0.000000
0.06197600 0.56208903 3.96930504 0.000000
0.13723800 0.56687301 4.03493404 0.000000
0.06480400 0.51977402 4.00509977 0.000000
0.06704000 0.71002603 3.98462105 0.000000
0.19635899 0.38037300 4.18364906 0.000000
0.05995800 0.32313100 4.13324118 0.000000
0.20226599 0.39660701 4.19214582 0.000000
0.06779900 0.32530099 4.12248898 0.000000
0.20523199 0.42108801 4.13417196 0.000000
0.05189200 0.35358399 4.08031797 0.000000
0.04470800 0.37011001 4.06869888 0.000000
0.03983800 0.36699501 4.07196522 0.000000
-0.41161600 0.59865302 5.75186491 0.000000
-0.56976998 0.67648900 5.32982922 0.000000
-0.57139498 0.65957701 5.34602022 0.000000
-0.43835601 0.63046098 5.76396418 0.000000
-0.56885898 0.68916899 5.32652712 0.000000
-0.57142901 0.68233198 5.31481791 0.000000
-0.54632002 0.81184000 5.87487602 0.000000
-0.59766698 0.89649397 5.29918814 0.000000
-0.53346097 0.75651997 5.86667824 0.000000
-0.54441500 0.77282000 5.87845182 0.000000
-0.59326100 0.87737900 5.31117916 0.000000
-0.47770500 0.67055398 5.70897913 0.000000
-0.51205999 0.74591100 5.28176403 0.000000
-0.50472802 0.71869802 5.28290415 0.000000
-0.47058499 0.67695600 5.71249723 0.000000
-0.50050497 0.68049997 5.28026295 0.000000
-0.48712501 0.63682401 5.69442701 0.000000
-0.48956901 0.63394397 5.69549417 0.000000
-0.49061799 0.69091803 5.29391098 0.000000
-0.48953399 0.69477898 5.29725504 0.000000
-0.49418101 0.65129101 5.70557404 0.000000
-0.49583799 0.72455102 5.29715586 0.000000
-0.49498701 0.69685501 5.28843784 0.000000
-0.60772598 0.83334100 5.80854511 0.000000
-0.52125299 0.94289201 5.25230217 0.000000
-0.60096997 0.78354102 5.80234909 0.000000
-0.58934802 0.78617501 5.79585123 0.000000
-0.51354802 0.91822201 5.27468300 0.000000
-0.51428300 0.93678099 5.27506685 0.000000
-0.54341799 0.84021801 5.85610294 0.000000
-0.59842402 0.93019199 5.26310682 0.000000
-0.52527201 0.78443998 5.85072517 0.000000
-0.59897900 0.90742701 5.29372978 0.000000
-0.41693500 0.63533598 5.72844124 0.000000
-0.43734199 0.65692902 5.72828913 0.000000
-0.56441301 0.66862398 5.30360508 0.000000
-0.54722601 0.67820400 5.28354406 0.000000
-0.43366501 0.65220302 5.73780489 0.000000
-0.56362498 0.69549900 5.30305195 0.000000
-0.56423098 0.70080900 5.30412483 0.000000
-0.49026000 0.56991100 5.73715687 0.000000
-0.51078898 0.69282401 5.38255310 0.000000
-0.50216699 0.59372002 5.73912191 0.000000
-0.50521100 0.59996301 5.74007082 0.000000
-0.49541599 0.70059699 5.36212683 0.000000
-0.60603398 0.74527597 5.84144402 0.000000
-0.60483301 0.74657398 5.83494520 0.000000
-0.51129699 0.91896999 5.31701183 0.000000
-0.59366202 0.73457003 5.81109715 0.000000
-0.60086000 0.74378198 5.82580805 0.000000
-0.50878900 0.86597598 5.32928896 0.000000
-0.45222899 0.65964699 5.69838285 0.000000
-0.44219601 0.64654499 5.68092489 0.000000
-0.54204899 0.71176797 5.28357792 0.000000
-0.53203702 0.72141099 5.27781010 0.000000
-0.44089201 0.65779102 5.71576786 0.000000
-0.52946198 0.66373801 5.27448177 0.000000
-0.54485101 0.67401600 5.28161621 0.000000
-0.57601100 0.91693199 5.25092697 0.000000
-0.57713097 0.89772701 5.25914717 0.000000
-0.57096702 0.71856201 5.86459494 0.000000
-0.55049598 0.85043401 5.36262989 0.000000
-0.57203197 0.72801799 5.87190104 0.000000
-0.56987900 0.90587300 5.35380507 0.000000
-0.48194000 0.59979701 5.78629684 0.000000
-0.54699701 0.71763301 5.37612295 0.000000
-0.46815699 0.55441302 5.77274418 0.000000
-0.53488100 0.68285203 5.39539480 0.000000
-0.55553800 0.74562001 5.88024521 0.000000
-0.58501297 0.86713803 5.33516216 0.000000
-0.57826102 0.90676600 5.34980392 0.000000
-0.55119097 0.72479701 5.86992788 0.000000
-0.57703203 0.87832499 5.34719801 0.000000
-0.57384902 0.85746700 5.34816885 0.000000
-0.43116701 0.58878899 5.76486683 0.000000
-0.56275702 0.67455900 5.36052608 0.000000
-0.55719203 0.67386699 5.37109900 0.000000
-0.46961400 0.60259002 5.78525209 0.000000
-0.46066999 0.59801501 5.78034592 0.000000
-0.56044298 0.70011699 5.35701990 0.000000
-0.57154000 0.70539802 5.84554577 0.000000
-0.52412599 0.86834300 5.34954977 0.000000
-0.54325098 0.86163902 5.36313009 0.000000
-0.59766102 0.73116302 5.84049177 0.000000
-0.52214903 0.91804099 5.33974600 0.000000
-0.52117300 0.86794502 5.34762096 0.000000
-0.48106700 0.56424099 5.76283598 0.000000
-0.48067701 0.57957602 5.78037405 0.000000
-0.52661699 0.68852103 5.39415121 0.000000
-0.58363199 0.81550699 5.79643917 0.000000
-0.52819598 0.94071001 5.24096680 0.000000
-0.49469799 0.59886801 5.69566298 0.000000
-0.48259801 0.67889601 5.35589409 0.000000
-0.48563600 0.69790000 5.34889698 0.000000
-0.50228101 0.62367302 5.70292187 0.000000
-0.51058501 0.62039202 5.72725487 0.000000
-0.47728100 0.69100797 5.32212210 0.000000
-0.60532397 0.78093398 5.80670023 0.000000
-0.61402398 0.78733301 5.81791878 0.000000
-0.50997400 0.92671901 5.28172588 0.000000
-0.59055501 0.74100500 5.79800606 0.000000
-0.50380701 0.88388300 5.31231499 0.000000
-0.18219700 0.88673902 4.89799690 0.000000
-0.44954300 0.79669797 4.83777905 0.000000
-0.19477700 0.86911601 4.86755991 0.000000
-0.19329099 0.88404399 4.88330221 0.000000
-0.42904401 0.79155397 4.81951809 0.000000
-0.26427901 0.87393802 4.89361620 0.000000
-0.27278799 0.86376399 4.90241194 0.000000
-0.36701101 0.80322200 4.85185719 0.000000
-0.36613801 0.81199598 4.86911011 0.000000
-0.23483200 0.79466498 4.97200203 0.000000
-0.23133600 0.79646701 4.97691107 0.000000
-0.39257401 0.76528001 4.94311094 0.000000
-0.25546199 0.80767900 4.95836878 0.000000
-0.23312500 0.78479898 4.96338320 0.000000
-0.37642601 0.73953497 4.92614412 0.000000
-0.17796899 0.88050902 4.96413803 0.000000
-0.46972200 0.76082999 4.88923597 0.000000
-0.15988900 0.85595798 4.95300293 0.000000
-0.46497899 0.75801301 4.90055990 0.000000
-0.46328601 0.74315298 4.89148617 0.000000
-0.23854500 0.88332999 4.87753201 0.000000
-0.40996200 0.81957901 4.83301497 0.000000
-0.20796400 0.88181901 4.87436199 0.000000
-0.41358900 0.78190500 4.81034613 0.000000
-0.42419001 0.79992199 4.82183218 0.000000
-0.41993201 0.74803603 4.94346905 0.000000
-0.19666500 0.79663903 4.98478508 0.000000
-0.40843400 0.70189101 4.92453289 0.000000
-0.27441400 0.83893800 4.95814419 0.000000
-0.27820501 0.84393400 4.95085192 0.000000
-0.37131801 0.81302601 4.91227484 0.000000
-0.25670099 0.80848902 4.95680380 0.000000
-0.25826499 0.80178398 4.92869902 0.000000
-0.35905001 0.74402601 4.90261412 0.000000
-0.17919500 0.89295501 4.92997885 0.000000
-0.46418199 0.77319199 4.85610294 0.000000
-0.46696299 0.77790600 4.86288309 0.000000
-0.16606800 0.87090302 4.90344715 0.000000
-0.45524701 0.76202297 4.83698177 0.000000
-0.23239900 0.82590902 4.85348701 0.000000
-0.37133300 0.77697301 4.81070280 0.000000
-0.23998100 0.82306802 4.86018610 0.000000
-0.36452001 0.78342700 4.83072376 0.000000
-0.16212600 0.81436098 4.96671009 0.000000
-0.25379699 0.78648299 4.88986206 0.000000
-0.25706401 0.80235797 4.90792084 0.000000
-0.17993701 0.89045501 4.95402479 0.000000
-0.18325400 0.89323902 4.96076822 0.000000
-0.46888900 0.75058401 4.87827396 0.000000
-0.16744900 0.87740600 4.93415308 0.000000
-0.46461901 0.75342602 4.85568714 0.000000
-0.36942801 1.20542800 5.06309319 0.000000
-0.40109700 1.15711904 5.12854624 0.000000
-0.45648700 0.87330198 5.21814823 0.000000
-0.40350300 1.17916000 5.13739300 0.000000
-0.46843201 0.87175202 5.21717691 0.000000
-0.49991900 0.86609298 5.25497723 0.000000
-0.50551301 0.88111502 5.23758698 0.000000
-0.40023300 1.13034999 5.10700178 0.000000
-0.44886199 0.89352500 5.17897177 0.000000
-0.41734999 1.16459298 5.11264801 0.000000
-0.41697299 1.17007303 5.12142611 0.000000
-0.44579899 0.87191302 5.25029182 0.000000
-0.44232100 0.89157701 5.22616911 0.000000
-0.48846799 0.86004001 5.25756693 0.000000
-0.50831598 0.88897300 5.23178291 0.000000
-0.45619699 0.63917297 5.78060579 0.000000
-0.45404699 0.64023697 5.77821493 0.000000
-0.56950301 0.74222100 5.33237600 0.000000
-0.56807202 0.72960800 5.33532619 0.000000
-0.46266499 0.66832697 5.78474998 0.000000
-0.57354403 0.75736201 5.31728411 0.000000
-0.53547800 0.73082697 5.75860023 0.000000
-0.52680898 0.74054801 5.76404905 0.000000
-0.52407199 0.87296098 5.26135015 0.000000
-0.54254901 0.79094201 5.78931093 0.000000
-0.54857600 0.77340502 5.77950811 0.000000
-0.53657597 0.85024601 5.26118803 0.000000
-0.50784099 0.68232697 5.72651482 0.000000
-0.51381600 0.65672201 5.72412920 0.000000
-0.49196699 0.74455798 5.30979919 0.000000
-0.49751100 0.76249897 5.30221415 0.000000
-0.51684499 0.69620299 5.73612690 0.000000
-0.51059401 0.81326699 5.28557491 0.000000
-0.51299298 0.76211500 5.83277702 0.000000
-0.50472403 0.74853802 5.81091022 0.000000
-0.58572501 0.86600000 5.28535795 0.000000
-0.58281398 0.86710399 5.27866507 0.000000
-0.50479299 0.74510401 5.82799387 0.000000
-0.58165097 0.82585698 5.30126905 0.000000
-0.57286799 0.81065702 5.29420090 0.000000
-0.51331002 0.61580902 5.75455189 0.000000
-0.51587099 0.61981398 5.74921894 0.000000
-0.50340098 0.71524298 5.36334276 0.000000
-0.50739402 0.71880800 5.36699486 0.000000
-0.53115302 0.64333498 5.76925898 0.000000
-0.53679001 0.65184700 5.77416706 0.000000
-0.50765300 0.75570899 5.35477877 0.000000
-0.50732499 0.78874898 5.34456491 0.000000
-0.49618801 0.72312498 5.76137114 0.000000
-0.49796101 0.72902101 5.77038717 0.000000
-0.54762298 0.79069400 5.27551699 0.000000
-0.54786497 0.80615199 5.27277279 0.000000
-0.47112599 0.68703699 5.73415422 0.000000
-0.47363299 0.69856101 5.75321913 0.000000
-0.53930902 0.73865497 5.28007984 0.000000
-0.54552901 0.75281203 5.28082514 0.000000
-0.54201400 0.78925502 5.37010384 0.000000
-0.54333699 0.68272299 5.83889723 0.000000
-0.54953700 0.80280799 5.36420584 0.000000
-0.51815599 0.71638799 5.84627485 0.000000
-0.51360798 0.69529998 5.83480215 0.000000
-0.57786298 0.83221501 5.33811522 0.000000
-0.51240498 0.68312103 5.82952499 0.000000
-0.51586300 0.68660098 5.83300877 0.000000
-0.55696499 0.80025703 5.36157179 0.000000
-0.53598201 0.65249902 5.80378485 0.000000
-0.54998100 0.67817402 5.83095503 0.000000
-0.52334899 0.79859197 5.36118317 0.000000
-0.53242701 0.64874399 5.80330610 0.000000
-0.53283799 0.79042500 5.36803579 0.000000
-0.52558899 0.65390998 5.74040079 0.000000
-0.54461002 0.66434300 5.76844501 0.000000
-0.49924499 0.78849798 5.33056688 0.000000
-0.49256900 0.73449302 5.33954811 0.000000
-0.54701900 0.69821900 5.75884581 0.000000
-0.50131100 0.80632699 5.31774521 0.000000
-0.49700800 0.78196299 5.30667019 0.000000
-0.54201698 0.90812200 5.78010798 0.000000
-0.57790399 0.89165002 5.76397610 0.000000
-0.52862900 0.97834402 5.18871784 0.000000
-0.53345102 0.94908100 5.19207478 0.000000
-0.61457598 0.96425402 5.19415617 0.000000
0.14418000 0.25922200 4.21220016 0.000000
0.15670100 0.27150100 4.22745085 0.000000
0.15212700 0.25613299 4.21625805 0.000000
0.15672600 0.32759601 4.25891495 0.000000
0.09456800 0.28818601 4.21782207 0.000000
0.11532500 0.27990001 4.22565413 0.000000
-0.44229600 0.97272903 5.01827478 0.000000
-0.36042801 1.05621004 5.01226377 0.000000
-0.43394899 0.96752900 5.02506685 0.000000
-0.43363899 0.96021003 5.04103804 0.000000
-0.35532400 1.00925505 5.01137209 0.000000
-0.41798499 1.18733096 5.06815195 0.000000
-0.41018301 1.18248403 5.05988121 0.000000
-0.44724101 0.94482398 5.19987488 0.000000
-0.44823301 0.94579202 5.20281076 0.000000
-0.40120900 1.14426804 5.05875206 0.000000
0.13889199 0.41483399 4.31861019 0.000000
0.13192900 0.37477601 4.31599998 0.000000
0.13781799 0.41344801 4.31928396 0.000000
-0.00218200 0.35537699 4.24549389 0.000000
0.00046000 0.35829899 4.25678682 0.000000
-0.00129500 0.35203999 4.23955202 0.000000
0.13919599 0.37559000 4.30760288 0.000000
0.01220400 0.34298700 4.23932314 0.000000
0.03774400 0.33366600 4.26525784 0.000000
0.14509401 0.32528201 4.27832890 0.000000
0.15282901 0.33177999 4.26688910 0.000000
0.08380600 0.30307201 4.24406624 0.000000
0.07902700 0.31006500 4.26145983 0.000000
0.10953900 0.28503200 4.23053312 0.000000
-0.01201900 0.63538998 4.05086803 0.000000
0.07866200 0.69048399 4.02271605 0.000000
-0.01463000 0.64022100 4.07279015 0.000000
0.04836000 0.68671697 3.98307800 0.000000
-0.08563300 0.52954799 4.22082806 0.000000
0.08090900 0.61918902 4.29463005 0.000000
0.06802400 0.56282002 4.37391710 0.000000
-0.09042300 0.50603098 4.30021191 0.000000
0.05151000 0.57968998 4.36771011 0.000000
0.04411200 0.58770800 4.37355280 0.000000
-0.10538400 0.50702298 4.31738091 0.000000
-0.02532200 0.63067597 4.34049606 0.000000
-0.08147100 0.56225502 4.29929209 0.000000
-0.08072900 0.57708198 4.30690622 0.000000
-0.07104300 0.47083199 4.23933601 0.000000
0.09878900 0.55694002 4.33152914 0.000000
-0.06766600 0.47176400 4.26429892 0.000000
-0.07818100 0.58012903 4.30492020 0.000000
0.04717100 0.59145600 4.34661293 0.000000
-0.08232600 0.53435898 4.28217793 0.000000
-0.08625800 0.54239100 4.29930305 0.000000
0.08136600 0.57848901 4.33318281 0.000000
0.07143900 0.56610399 4.34628296 0.000000
-0.08375800 0.52236098 4.28469801 0.000000
-0.03475700 0.41951099 4.21869707 0.000000
-0.04090500 0.65382099 4.38936520 0.000000
-0.11417600 0.62394899 4.35364389 0.000000
-0.03303800 0.63831902 4.35152292 0.000000
0.00049500 0.62437302 4.39677906 0.000000
-0.11957500 0.55833101 4.33789778 0.000000
-0.00720600 0.62529403 4.37398005 0.000000
-0.10946300 0.58331501 4.33601904 0.000000
0.07568000 0.55954897 4.35063887 0.000000
-0.07582100 0.48976400 4.27913094 0.000000
-0.08460300 0.48493901 4.29335308 0.000000
0.08567800 0.54221201 4.35265112 0.000000
-0.06361900 0.45398200 4.26805019 0.000000
0.03347500 0.59795702 4.39597416 0.000000
-0.10149400 0.55147702 4.32021523 0.000000
0.02136200 0.60286701 4.36880398 0.000000
-0.09155300 0.53103602 4.30321598 0.000000
-0.02437000 0.63778597 4.36596584 0.000000
-0.01782600 0.63321602 4.36797190 0.000000
0.04235000 0.58792800 4.39713478 0.000000
0.06297200 0.56468499 4.39262915 0.000000
0.04654600 0.57776701 4.42463303 0.000000
-0.13592200 0.48901901 4.35386705 0.000000
-0.11840300 0.49146000 4.33348179 0.000000
-0.15169100 0.49536899 4.37161016 0.000000
0.02385600 0.59845299 4.46444702 0.000000
0.01274700 0.61273998 4.46609879 0.000000
0.03040400 0.59011197 4.46305323 0.000000
-0.14336801 0.51737899 4.35977411 0.000000
-0.15849601 0.50752401 4.37780190 0.000000
-0.16600899 0.50111902 4.38694000 0.000000
-0.14888801 0.50525999 4.36738396 0.000000
0.14700601 0.43915999 4.31329298 0.000000
0.15274100 0.43288499 4.30645609 0.000000
-0.01213500 0.36699599 4.24057913 0.000000
-0.02476700 0.38755000 4.25201178 0.000000
-0.02429400 0.39215800 4.23640394 0.000000
0.15029800 0.45258200 4.30327797 0.000000
-0.33322799 0.57007998 5.42531681 0.000000
-0.33880800 0.57932103 5.45845222 0.000000
-0.31439099 0.58048803 5.46462011 0.000000
-0.38503700 0.52765101 5.42902422 0.000000
-0.39215899 0.56279999 5.48555899 0.000000
-0.39599001 0.52198499 5.45641994 0.000000
-0.40766099 0.50625402 5.47878408 0.000000
-0.40669900 0.48636800 5.46113014 0.000000
-0.39495200 0.51276797 5.44650507 0.000000
-0.40227500 0.44893399 5.55183315 0.000000
-0.40655401 0.45554301 5.55327415 0.000000
-0.41086501 0.46217799 5.55593491 0.000000
-0.43573800 0.43438700 5.34722614 0.000000
-0.44581199 0.46269000 5.34195280 0.000000
-0.42622101 0.47649199 5.32044411 0.000000
-0.43021500 0.49682799 5.31414700 0.000000
-0.41296101 0.44036299 5.51568079 0.000000
-0.40507001 0.43231100 5.51577187 0.000000
-0.40780401 0.44859600 5.32374382 0.000000
-0.41275099 0.49377501 5.30330610 0.000000
-0.41400799 0.49175701 5.30502319 0.000000
-0.35562801 0.55689102 5.43710518 0.000000
-0.35654601 0.55491400 5.43448210 0.000000
-0.34130001 0.57044202 5.43920517 0.000000
-0.35939500 0.56601399 5.46104383 0.000000
-0.37060300 0.55048901 5.44641399 0.000000
-0.35789299 0.57247800 5.46979284 0.000000
-0.27924499 0.54952401 5.51944494 0.000000
-0.28188601 0.55663902 5.51379681 0.000000
-0.27399901 0.52508301 5.54869413 0.000000
-0.29940200 0.56283897 5.54803705 0.000000
-0.28889799 0.52727902 5.58015919 0.000000
-0.28365800 0.52704298 5.56983805 0.000000
-0.29051200 0.52461398 5.58727312 0.000000
-0.55018300 0.48445901 5.27015495 0.000000
-0.32697201 0.44428200 5.59610510 0.000000
-0.33437699 0.44649801 5.59676123 0.000000
-0.51370502 0.43394500 5.33011007 0.000000
-0.52187902 0.43817899 5.32337379 0.000000
-0.35901499 0.45084500 5.60509300 0.000000
-0.35166901 0.46262500 5.60982704 0.000000
-0.49947101 0.47953001 5.35327816 0.000000
-0.50445598 0.44842100 5.33837509 0.000000
-0.40943301 0.48608300 5.47015285 0.000000
-0.41771600 0.49364501 5.51045704 0.000000
-0.41478601 0.48672199 5.49335814 0.000000
-0.41218701 0.53447598 5.51425886 0.000000
-0.41837999 0.47399601 5.51430988 0.000000
-0.41215399 0.46545801 5.48832178 0.000000
-0.42506599 0.48275101 5.54253387 0.000000
-0.42376301 0.48052001 5.53743887 0.000000
-0.01857300 0.43241301 4.57021093 0.000000
-0.10457100 0.38221699 4.53967524 0.000000
-0.03151700 0.39152801 4.55401993 0.000000
-0.02479700 0.40458399 4.55222988 0.000000
-0.08041400 0.36869499 4.52353907 0.000000
-0.05011300 0.39790899 4.64535093 0.000000
-0.05285600 0.39254400 4.64312887 0.000000
-0.14730699 0.38107100 4.58964205 0.000000
-0.12762199 0.36925501 4.61145782 0.000000
-0.04334700 0.40299299 4.61709213 0.000000
-0.13857000 0.38056201 4.58552313 0.000000
-0.10204800 0.36761600 4.58692598 0.000000
-0.22959401 0.38207701 5.53667402 0.000000
0.08868200 0.70523399 4.01455879 0.000000
0.13007601 0.52672100 4.30946684 0.000000
-0.05000000 0.43746200 4.22473907 0.000000
0.11661700 0.52597201 4.32508278 0.000000
-0.05873500 0.45043400 4.24785614 0.000000
0.12105900 0.51308000 4.32323790 0.000000
-0.04292700 0.42665100 4.24080086 0.000000
0.11370200 0.48331401 4.34985209 0.000000
0.10689200 0.50951499 4.34800291 0.000000
-0.05646000 0.43352801 4.27704477 0.000000
-0.05557500 0.44271699 4.25961399 0.000000
0.15247400 0.51949698 4.10310793 0.000000
0.03401800 0.52956402 4.02367401 0.000000
0.04370900 0.56435198 3.97851300 0.000000
-0.50981301 0.89901298 5.21267080 0.000000
-0.50981599 0.92407799 5.14373302 0.000000
-0.31439301 1.11307096 5.07057381 0.000000
-0.50996798 0.92747802 5.11403179 0.000000
0.09341200 0.67672402 3.96002412 0.000000
0.09504100 0.46118701 4.39750385 0.000000
0.11676500 0.45969999 4.35669279 0.000000
0.10485700 0.46915701 4.37445211 0.000000
0.11222000 0.47445101 4.35752487 0.000000
-0.05450600 0.38884801 4.33440495 0.000000
-0.03584400 0.39139101 4.28508711 0.000000
-0.03667700 0.38657600 4.29369020 0.000000
0.07834800 0.50439501 4.42007589 0.000000
0.09041600 0.46491101 4.40545702 0.000000
0.08831100 0.51142401 4.38955879 0.000000
0.08950700 0.51322103 4.38545322 0.000000
0.08752400 0.48291999 4.40498114 0.000000
-0.06851000 0.40074500 4.34258699 0.000000
-0.06598400 0.41815799 4.31828499 0.000000
-0.07938800 0.43940401 4.31260681 0.000000
-0.08195700 0.40891200 4.35246515 0.000000
-0.34987801 0.53973699 5.40608406 0.000000
-0.35168299 0.54225600 5.40972805 0.000000
-0.36591199 0.53685099 5.41523504 0.000000
-0.33316100 0.52691698 5.38383913 0.000000
-0.37374800 0.50966799 5.40271807 0.000000
-0.36279199 0.50995702 5.39543915 0.000000
-0.36486700 0.48259601 5.38316584 0.000000
-0.43277600 0.63387197 5.66439295 0.000000
-0.43163800 0.61583900 5.64908791 0.000000
-0.50715101 0.65652198 5.27044582 0.000000
-0.46313399 0.62334102 5.66468000 0.000000
-0.49936900 0.65383399 5.27378607 0.000000
-0.31523401 0.96506399 5.04230785 0.000000
-0.43828499 0.90746200 5.00615501 0.000000
-0.32613400 0.96310401 5.02904701 0.000000
-0.42412201 0.91220999 4.99661493 0.000000
-0.44738299 0.93334502 5.07147980 0.000000
-0.36379400 1.05849504 5.06734085 0.000000
-0.28403801 0.89535397 5.01672411 0.000000
-0.27348700 0.85451800 4.98885584 0.000000
-0.39194101 0.77785301 4.94491005 0.000000
-0.40073201 0.81028497 4.95591688 0.000000
-0.28281099 0.87349200 4.99355221 0.000000
-0.27810299 0.85546798 4.98147106 0.000000
-0.41266099 0.85237598 4.96621513 0.000000
-0.30427599 0.50059301 5.36092281 0.000000
-0.31788501 0.49876499 5.36055088 0.000000
-0.32975301 0.48582199 5.36171103 0.000000
-0.42335501 1.16680002 5.09969521 0.000000
-0.43727899 0.92221397 5.18597221 0.000000
-0.43420100 0.91340703 5.22033119 0.000000
-0.43970701 0.94311601 5.18294001 0.000000
-0.01681800 0.63645297 4.40242720 0.000000
-0.17321099 0.59568000 4.40994692 0.000000
-0.16837500 0.60168099 4.40620708 0.000000
-0.16374899 0.59719300 4.39959002 0.000000
0.00253500 0.62372100 4.41478300 0.000000
0.00355300 0.62298399 4.41203880 0.000000
-0.13859400 0.58046901 4.36575222 0.000000
-0.14374900 0.57965702 4.37139082 0.000000
-0.13444200 0.57731903 4.35993910 0.000000
0.10146500 0.37727499 4.36874580 0.000000
0.09453300 0.39236301 4.38607693 0.000000
0.10639700 0.41242099 4.37303782 0.000000
0.08895600 0.43285099 4.41028690 0.000000
0.10056700 0.39915600 4.37821102 0.000000
-0.00185500 0.35398000 4.31330109 0.000000
0.01441900 0.34011301 4.33171892 0.000000
-0.02497300 0.36514300 4.33068991 0.000000
-0.00325500 0.34888899 4.34377384 0.000000
0.00534900 0.34151199 4.35374689 0.000000
0.12454000 0.42536199 4.33803415 0.000000
0.11067600 0.44529301 4.37018108 0.000000
0.09756900 0.43983799 4.39700699 0.000000
0.11340400 0.44063199 4.36374617 0.000000
0.12052300 0.45493099 4.35084009 0.000000
-0.03741300 0.38194701 4.30713606 0.000000
-0.02032700 0.38046500 4.27573109 0.000000
