0.02436800 0.33783701 4.46165800 0.000000
0.02312300 0.35053101 4.44831991 0.000000
-0.06168500 0.31896001 4.51496696 0.000000
-0.06599000 0.31888500 4.51122904 0.000000
0.02315400 0.31622201 4.41683817 0.000000
-0.10134900 0.30881000 4.47680902 0.000000
-0.09610900 0.31768700 4.48166323 0.000000
-0.09013900 0.37986901 4.48266697 0.000000
0.01639500 0.37725601 4.43526983 0.000000
-0.07514500 0.37337801 4.50140285 0.000000
0.02076300 0.36765900 4.45596981 0.000000
-0.12951200 0.07789000 4.21378422 0.000000
-0.12444700 0.04043600 4.20561314 0.000000
-0.14170200 0.04472200 4.22616291 0.000000
-0.14522600 0.20728800 4.28841591 0.000000
-0.00221100 0.35191801 4.47778177 0.000000
-0.03204000 0.32600999 4.49993896 0.000000
-0.01425600 0.32556099 4.49554920 0.000000
-0.02651300 0.35549200 4.48961115 0.000000
-0.00938500 0.39081800 4.47253513 0.000000
-0.02589400 0.37499100 4.48420191 0.000000
-0.03237700 0.40452600 4.47909021 0.000000
-0.10074400 0.39949000 4.35618305 0.000000
-0.10301100 0.12662400 4.23011589 0.000000
-0.14573000 0.12437300 4.25160599 0.000000
-0.09487100 0.12166400 4.23009205 0.000000
-0.07688300 0.31641299 4.31104612 0.000000
-0.03085400 0.41688001 4.43787479 0.000000
-0.02727500 0.40778899 4.45011187 0.000000
-0.04891800 0.42491099 4.43744802 0.000000
-0.12266200 0.27906099 4.31617308 0.000000
-0.08828500 0.35551700 4.32715511 0.000000
-0.08781000 0.27431700 4.29442883 0.000000
-0.15038200 0.18302999 4.28384781 0.000000
-0.13242400 0.20911400 4.27859020 0.000000
-0.11050400 0.25210500 4.29031181 0.000000
-0.10704400 0.38211000 4.35353613 0.000000
0.00534600 0.13169999 4.27419281 0.000000
-0.01020200 0.12488800 4.26019382 0.000000
-0.18088000 0.12962601 4.36121416 0.000000
-0.18975200 0.14758600 4.33258295 0.000000
-0.09704100 0.41097599 4.45973921 0.000000
-0.09658800 0.38454700 4.47271919 0.000000
0.01145600 0.38155201 4.41957188 0.000000
0.01189900 0.35926199 4.40965223 0.000000
-0.10580100 0.36249301 4.46025610 0.000000
0.00385200 0.36170399 4.39598608 0.000000
-0.10117300 0.41744900 4.44555378 0.000000
0.32052201 0.08188600 4.96608591 0.000000
0.31785899 0.07736300 4.96667910 0.000000
0.03014000 0.06269300 5.07891417 0.000000
0.34659299 0.38787600 5.16683722 0.000000
-0.07309600 0.39876401 5.15218782 0.000000
0.33941099 0.32464001 5.15427685 0.000000
-0.08285500 0.40072301 5.15146208 0.000000
-0.06024600 0.35383099 5.14104319 0.000000
0.33814201 0.17485800 5.05425882 0.000000
0.33715299 0.15407801 5.02282381 0.000000
-0.01400100 0.14947200 5.09311199 0.000000
0.33222401 0.25401300 5.13193083 0.000000
-0.01574400 0.26140401 5.12147093 0.000000
-0.02783300 0.25202301 5.11936903 0.000000
0.31990901 0.09411100 4.98768806 0.000000
0.02377000 0.09164600 5.08608723 0.000000
0.31970301 0.11885100 5.02376080 0.000000
0.01807300 0.08069000 5.08219481 0.000000
-0.00248300 -0.13241901 4.38631201 0.000000
0.01546300 -0.11856200 4.40157509 0.000000
0.00683800 -0.08295200 4.37879515 0.000000
0.00177400 -0.05367700 4.36236191 0.000000
-0.06270700 -0.11890500 4.40408897 0.000000
-0.06015800 -0.12645900 4.40388012 0.000000
-0.06266700 -0.11909800 4.44015884 0.000000
-0.05765800 -0.13388801 4.41190577 0.000000
-0.01456600 -0.08419700 4.35491323 0.000000
-0.01262300 -0.09879400 4.36247206 0.000000
-0.02290100 -0.06708000 4.33914185 0.000000
-0.02786200 -0.05980700 4.33082104 0.000000
-0.07880200 -0.07243700 4.36140203 0.000000
-0.07958300 -0.07025100 4.35777903 0.000000
-0.07255200 -0.08975500 4.39490414 0.000000
-0.06973400 -0.09855500 4.38428783 0.000000
0.03345000 0.12378800 4.12386179 0.000000
-0.03952800 0.06768500 4.24436903 0.000000
-0.14533500 0.05980300 4.28624821 0.000000
0.02457500 0.10853900 4.28162384 0.000000
-0.27724001 0.12935600 4.25174904 0.000000
-0.28646901 0.12788700 4.26070881 0.000000
-0.00572900 0.18336600 4.25317097 0.000000
-0.03626300 0.23692200 4.28443813 0.000000
-0.16004600 0.21968500 4.36793995 0.000000
0.02624100 0.08042000 4.28590822 0.000000
0.01435500 0.09532000 4.26576424 0.000000
0.02720400 0.10556300 4.28570986 0.000000
-0.16453700 0.09655300 4.40366602 0.000000
-0.17008699 0.09991100 4.40755415 0.000000
0.05526600 0.09884900 4.32216406 0.000000
-0.16477101 0.08697000 4.41565180 0.000000
-0.16562900 0.07176700 4.38205194 0.000000
0.46195701 -0.09946600 5.29855013 0.000000
0.46746999 -0.21757101 5.48762321 0.000000
0.45728499 -0.22773799 5.45339394 0.000000
0.47574601 -0.21164501 5.51347685 0.000000
0.47270301 -0.23299900 5.48790503 0.000000
0.47783700 -0.21815200 5.51330280 0.000000
0.46873799 -0.24493501 5.48215389 0.000000
0.46230099 -0.26252100 5.48010206 0.000000
0.45588401 -0.25080499 5.46135998 0.000000
0.47150999 -0.23675101 5.48268795 0.000000
0.55550402 0.14620399 5.31505680 0.000000
0.55836600 -0.10666900 5.79536200 0.000000
0.57365602 0.16070700 5.33557796 0.000000
0.56166202 0.14301600 5.32538319 0.000000
0.56527001 -0.13329600 5.80081177 0.000000
0.56818902 0.33859199 5.25144100 0.000000
0.60816503 0.00225100 5.92661619 0.000000
0.56497502 0.34394899 5.23704100 0.000000
0.56684500 0.33108300 5.24206305 0.000000
0.60360497 0.02108700 5.92695093 0.000000
0.54500198 0.06683000 5.31405210 0.000000
0.53837103 0.05163000 5.30473900 0.000000
0.52995002 -0.16138700 5.69699001 0.000000
0.52613902 0.04784000 5.25879717 0.000000
0.53226399 0.05343500 5.28132677 0.000000
0.52598900 -0.15341200 5.69506788 0.000000
0.55821002 0.41484201 5.18697882 0.000000
0.61865503 0.07356400 5.97376299 0.000000
0.55689800 -0.13003600 5.76917887 0.000000
0.55053300 0.12843700 5.31164217 0.000000
0.55251598 -0.12663400 5.75900793 0.000000
-0.10825600 0.38474199 4.44892979 0.000000
-0.04298700 0.33013001 4.33069992 0.000000
-0.04390800 0.34913599 4.33527613 0.000000
-0.04609000 0.33752200 4.33057785 0.000000
-0.02142600 0.43974501 4.44643593 0.000000
-0.04571600 0.12208300 4.24274111 0.000000
-0.17121300 0.11081000 4.30662918 0.000000
-0.03188200 0.14747100 4.24496412 0.000000
-0.17720801 0.13474800 4.30930710 0.000000
-0.03525500 0.18956500 4.24546289 0.000000
-0.03944100 0.19259900 4.24589205 0.000000
-0.02986700 0.20805000 4.25161219 0.000000
-0.17644200 0.20548300 4.35123396 0.000000
0.65954101 0.17438500 5.30433607 0.000000
0.48399001 -0.13394600 5.85083818 0.000000
0.48245400 -0.12826800 5.85067177 0.000000
0.65200001 0.20213200 5.27636194 0.000000
0.48328301 -0.10463200 5.85987186 0.000000
0.49939001 -0.10311100 5.87567616 0.000000
0.65387702 0.38484499 5.19437504 0.000000
0.54979700 0.02181400 6.01372194 0.000000
0.65464097 0.37294301 5.21722889 0.000000
0.65489501 0.38866699 5.22273111 0.000000
0.54687601 -0.00852100 5.99131107 0.000000
0.58201897 0.22503600 5.23892403 0.000000
0.53587502 -0.03111300 5.84517717 0.000000
0.58585298 0.17959601 5.24112082 0.000000
0.58811200 0.19584399 5.23792315 0.000000
0.51120597 -0.05190600 5.81816292 0.000000
0.56620699 0.20265201 5.27576399 0.000000
0.57283300 0.18411399 5.25765610 0.000000
0.54485399 -0.06365500 5.81706095 0.000000
0.57129401 0.20841201 5.26268005 0.000000
0.57238799 0.21856099 5.25956583 0.000000
0.54520398 -0.04312100 5.83941221 0.000000
0.54973000 -0.05103800 5.83457279 0.000000
0.56484300 0.39756501 5.17779016 0.000000
0.59415400 0.09461800 5.96239185 0.000000
0.56466198 0.38402000 5.19196320 0.000000
0.59406799 0.05486200 5.93829298 0.000000
0.60228401 0.07742800 5.95930719 0.000000
0.53510201 0.05086900 5.99520206 0.000000
0.54040098 0.05324800 6.00885487 0.000000
0.65061098 0.39363599 5.18083191 0.000000
0.53490400 0.02176100 5.99603224 0.000000
0.62811100 0.16294201 5.24822903 0.000000
0.62746298 0.20772600 5.24079084 0.000000
0.47710699 -0.08549400 5.82096481 0.000000
0.47441500 -0.10282100 5.83186388 0.000000
0.63126999 0.20757701 5.24432707 0.000000
0.49421901 -0.07539000 5.86885881 0.000000
0.49078199 -0.08910400 5.87174988 0.000000
0.59516901 0.17855500 5.34832716 0.000000
0.56743699 -0.13659900 5.85214281 0.000000
0.58154303 0.18597800 5.33268976 0.000000
0.59052300 0.19226900 5.33669615 0.000000
0.56893098 -0.12527600 5.82172489 0.000000
0.58430099 0.37978899 5.25709915 0.000000
0.58370000 0.39525300 5.25115585 0.000000
0.62149101 0.00566400 5.97258091 0.000000
0.56913501 0.34986299 5.25019121 0.000000
0.57131302 0.37905899 5.23785782 0.000000
0.62114501 0.03446200 5.96399403 0.000000
0.60180300 0.18484400 5.23675919 0.000000
0.60325402 0.19751000 5.23476887 0.000000
0.50554800 -0.04637700 5.84428787 0.000000
0.50086403 -0.05299800 5.85001802 0.000000
0.60002601 0.17243400 5.23830986 0.000000
0.48794901 -0.07059500 5.83123016 0.000000
0.48889700 -0.07022300 5.81134319 0.000000
0.61748898 0.38801101 5.15480900 0.000000
0.62107098 0.38199601 5.15934896 0.000000
0.61805302 0.37246600 5.27595711 0.000000
0.59034199 -0.04377800 5.97008181 0.000000
0.63849998 0.35927099 5.27221680 0.000000
0.63489997 0.37864500 5.26525688 0.000000
0.58554900 -0.02761000 5.99301815 0.000000
0.63738400 0.20578100 5.33978987 0.000000
0.63498998 0.19102000 5.35256720 0.000000
0.63388801 0.20651700 5.34332800 0.000000
0.54070598 -0.15645599 5.86704588 0.000000
0.64789599 0.39865899 5.23943090 0.000000
0.55360001 -0.01648000 5.99204779 0.000000
0.64242601 0.37925899 5.25944424 0.000000
0.64791399 0.37663901 5.24857521 0.000000
0.57656097 -0.02594100 5.99411821 0.000000
0.65050399 0.20975401 5.30274200 0.000000
0.66103399 0.16401000 5.31013823 0.000000
0.51903200 -0.15454300 5.86265516 0.000000
0.49875900 -0.14097200 5.86197996 0.000000
0.64693701 0.22038700 5.30524015 0.000000
0.53421098 -0.13846099 5.87794924 0.000000
0.53233999 -0.13923900 5.87672997 0.000000
0.60795200 0.37037200 5.27395916 0.000000
0.60923702 -0.01550100 5.99320602 0.000000
0.61134702 -0.01968300 5.95364285 0.000000
0.60026002 0.39926401 5.25903702 0.000000
0.62051201 0.00415700 5.97860718 0.000000
0.61482298 0.18979099 5.35548210 0.000000
0.56306100 -0.15497300 5.85286188 0.000000
0.61637503 0.20224901 5.34883118 0.000000
0.56089401 -0.14386800 5.87038708 0.000000
0.59327501 0.10626600 5.96756220 0.000000
0.57270497 0.18208601 5.32061291 0.000000
0.56895602 0.18867600 5.30825806 0.000000
0.55616897 -0.09628900 5.79752493 0.000000
0.56227303 -0.10621500 5.80838299 0.000000
0.56643403 0.21256500 5.28182507 0.000000
0.56701398 0.20774101 5.28836918 0.000000
0.56612098 -0.07306000 5.83900690 0.000000
0.56108999 0.37454301 5.21225023 0.000000
0.61323202 0.04611100 5.94976711 0.000000
0.56464398 0.38649300 5.22278595 0.000000
0.61437798 0.02704300 5.94446707 0.000000
0.31256199 0.15910301 4.90780497 0.000000
0.29691899 0.15787700 4.89201784 0.000000
0.28458199 0.14106899 4.86772394 0.000000
0.28578001 0.16383700 4.89242887 0.000000
0.21760400 0.13617299 4.90162802 0.000000
0.03643100 0.10900100 4.95846701 0.000000
0.04291200 0.10725600 4.95830822 0.000000
0.21450999 0.13100301 4.90012503 0.000000
0.26590401 0.07575200 4.98155403 0.000000
0.07629300 0.08596600 5.04335022 0.000000
0.33948201 0.12625800 4.95245790 0.000000
0.33600900 0.10173800 4.94183588 0.000000
0.33666101 0.10711300 4.91308212 0.000000
0.26220500 0.17063600 4.90258408 0.000000
-0.00153900 0.10004700 4.95881224 0.000000
0.27232099 0.16240700 4.88891315 0.000000
0.04876600 0.05972500 5.07735682 0.000000
0.22996899 0.11688700 4.96459293 0.000000
0.23374100 0.09918300 4.95943117 0.000000
0.07617600 0.10326100 5.01687288 0.000000
0.07521600 0.10339900 4.99407101 0.000000
0.08008000 0.09006200 4.99988699 0.000000
0.08079000 0.09020500 5.02669287 0.000000
0.32546699 0.15446199 4.92586088 0.000000
0.32183099 0.14115000 4.90298319 0.000000
0.21522000 0.12879600 4.88669682 0.000000
0.33774000 0.11906400 4.92870092 0.000000
0.33299300 0.13344100 4.92101002 0.000000
0.31219500 0.40345001 5.19903088 0.000000
0.30823001 0.35699499 5.19020891 0.000000
0.31318000 0.40723801 5.19944191 0.000000
-0.05507400 0.44813499 5.14498520 0.000000
0.35427999 0.43576699 5.16722584 0.000000
-0.10686500 0.41994199 5.14797211 0.000000
0.30214599 0.40767699 5.19929123 0.000000
-0.03458800 0.41767800 5.13542986 0.000000
0.29909801 0.41278699 5.19879293 0.000000
-0.03601400 0.43687400 5.11758423 0.000000
0.34155500 0.42325500 5.18667412 0.000000
0.35071301 0.43292999 5.18304014 0.000000
0.34966099 0.41341799 5.14235592 0.000000
-0.11720300 0.42203501 5.14097977 0.000000
0.64977598 0.24608600 5.27612591 0.000000
0.64924997 0.25628999 5.26415110 0.000000
0.51506603 -0.10663400 5.88877487 0.000000
0.52297002 -0.08394100 5.91040611 0.000000
0.64797300 0.28175199 5.23799086 0.000000
0.51476198 -0.05555200 5.91828203 0.000000
0.51911002 -0.04595800 5.92839193 0.000000
0.59544098 0.30259600 5.19755316 0.000000
0.55388099 0.03196200 5.91418600 0.000000
0.58966798 0.34422201 5.17718887 0.000000
0.58174801 0.35676301 5.17521191 0.000000
0.56595999 0.05826000 5.93251085 0.000000
0.57462603 0.25388801 5.24447393 0.000000
0.57147598 0.25492299 5.25185299 0.000000
0.57158399 -0.01245600 5.88126183 0.000000
0.57445902 -0.01724800 5.87869692 0.000000
0.57532001 0.28997701 5.22507000 0.000000
0.55163300 -0.01002400 5.87293386 0.000000
0.63740700 0.33038101 5.19804478 0.000000
0.64496499 0.36233699 5.18750095 0.000000
0.52898598 0.01903800 5.97281504 0.000000
0.52869701 0.02475100 5.97049999 0.000000
0.63698900 0.31704301 5.20600891 0.000000
0.63934302 0.30517799 5.21550322 0.000000
0.52757603 0.00427900 5.96617794 0.000000
0.59916502 0.21938799 5.32836103 0.000000
0.59435600 0.22645800 5.32085419 0.000000
0.59792000 0.22314000 5.32556486 0.000000
0.57550001 -0.09422700 5.86682177 0.000000
0.57942897 -0.09165300 5.88721085 0.000000
0.58517402 0.27479300 5.29159307 0.000000
0.59135002 0.27706900 5.29600620 0.000000
0.58217603 -0.07173600 5.87668610 0.000000
0.58762097 -0.05566800 5.88549089 0.000000
0.61308402 0.26902199 5.21396923 0.000000
0.53208399 0.00761500 5.89975786 0.000000
0.51987702 -0.01279400 5.89410686 0.000000
0.61404502 0.23580000 5.22707176 0.000000
0.59933800 0.22958300 5.22606277 0.000000
0.49954501 -0.05215500 5.86599779 0.000000
0.51099300 -0.03406500 5.86549807 0.000000
0.51099098 -0.03568900 5.85905600 0.000000
0.57379699 -0.09014300 5.92341518 0.000000
0.62760299 0.31247801 5.29315996 0.000000
0.56825900 -0.07443000 5.94038820 0.000000
0.64790303 0.29171500 5.26558924 0.000000
0.64797199 0.34656200 5.25645590 0.000000
0.55240798 -0.02644100 5.98205709 0.000000
0.56012100 -0.03032400 5.98207188 0.000000
0.64339900 0.29429001 5.27607012 0.000000
0.55334800 -0.05711500 5.95159817 0.000000
0.56495303 -0.05342200 5.96145487 0.000000
0.60426497 0.31602401 5.29278708 0.000000
0.60660201 0.34255701 5.28437710 0.000000
0.59829003 -0.04447000 5.95371294 0.000000
0.60550600 0.28689599 5.30344677 0.000000
0.58126998 -0.08038200 5.92935085 0.000000
0.57325798 0.26351300 5.27678919 0.000000
0.57379198 0.23800100 5.28715181 0.000000
0.57496297 -0.08375800 5.85094309 0.000000
0.58233702 -0.06432200 5.87009478 0.000000
0.57195503 0.29252800 5.25909805 0.000000
0.57789099 -0.02207800 5.88070011 0.000000
0.58931500 -0.03470300 5.89301682 0.000000
0.59239399 0.47360200 5.10546494 0.000000
0.53350502 0.14421301 5.98441601 0.000000
0.58254898 0.16382501 5.97052383 0.000000
0.57285500 0.14319000 5.96157885 0.000000
0.52320701 0.13398799 6.02496386 0.000000
-0.13704300 0.04150700 4.22027588 0.000000
-0.09535900 0.03079500 4.23197889 0.000000
-0.12777700 0.03463300 4.21717215 0.000000
-0.14395800 0.05314400 4.26820087 0.000000
-0.14050500 0.04841800 4.25541878 0.000000
-0.00123000 0.27884799 5.03396702 0.000000
0.26026601 0.29794401 5.11561918 0.000000
0.00174800 0.29013801 5.03986216 0.000000
0.25314999 0.26199400 5.09585524 0.000000
-0.00730200 0.32876199 5.06051683 0.000000
-0.00013400 0.31140700 5.05618191 0.000000
0.25281200 0.24654000 5.09644604 0.000000
0.00964900 0.29743400 5.05881310 0.000000
0.26293099 0.43278301 5.15427589 0.000000
-0.05807100 0.45045799 5.07995510 0.000000
-0.04995800 0.40255901 5.06816387 0.000000
0.26348701 0.37252000 5.14679193 0.000000
-0.04837800 0.43237001 5.07608795 0.000000
0.02547400 0.05046300 4.34162998 0.000000
0.02744100 0.04944600 4.34647608 0.000000
-0.12370700 0.03687300 4.37387896 0.000000
-0.12706900 0.03933700 4.37285614 0.000000
-0.13215300 0.04559600 4.38787413 0.000000
0.00383700 0.05524500 4.30224991 0.000000
-0.01179500 0.03713900 4.30683088 0.000000
-0.13264300 0.04260000 4.33472300 0.000000
-0.14228500 0.05178500 4.36029291 0.000000
-0.04786100 0.03147100 4.27513504 0.000000
-0.11741300 0.03058600 4.29648781 0.000000
-0.12217300 0.03574200 4.29554319 0.000000
-0.06893400 0.04366300 4.24446583 0.000000
-0.12368000 0.03722900 4.27873611 0.000000
0.01486000 0.34520900 4.45444202 0.000000
-0.07664900 0.41830301 4.44505119 0.000000
-0.07186900 0.37275001 4.50290489 0.000000
-0.00600200 0.42763200 4.45323181 0.000000
0.09792600 0.18259700 4.46509886 0.000000
-0.10734900 0.16211000 4.54873705 0.000000
-0.08818800 0.16711900 4.56600618 0.000000
0.09914100 0.10657000 4.49299812 0.000000
-0.07379100 0.10382800 4.56906223 0.000000
0.10171400 0.10174500 4.50014019 0.000000
0.10777500 0.07894000 4.48719215 0.000000
-0.06984700 0.09151800 4.58134222 0.000000
0.06504300 0.14335600 4.58463478 0.000000
0.08767700 0.12555601 4.54039097 0.000000
-0.03326100 0.12270800 4.59444714 0.000000
0.09678700 0.13631800 4.43493795 0.000000
-0.11895800 0.12825499 4.52479410 0.000000
0.09258900 0.11810600 4.44382381 0.000000
-0.10678800 0.12291400 4.53895903 0.000000
0.07735700 0.13257600 4.56843519 0.000000
0.09694400 0.13013400 4.50539780 0.000000
-0.06624200 0.12954301 4.57451105 0.000000
-0.05090500 0.12704800 4.58305502 0.000000
0.09715500 0.12436600 4.47634506 0.000000
-0.09436100 0.11074100 4.54490423 0.000000
-0.07442400 0.10460800 4.56804895 0.000000
0.06629600 0.11740600 4.37588406 0.000000
-0.13722999 0.11640900 4.46945095 0.000000
0.07063800 0.13647200 4.60246515 0.000000
0.02278600 0.12889899 4.64252901 0.000000
0.01235900 0.13425700 4.62307787 0.000000
0.11242300 0.08691000 4.55875492 0.000000
-0.03958000 0.08864600 4.61617422 0.000000
0.09670200 0.10843200 4.57034111 0.000000
-0.03097000 0.10954200 4.60589600 0.000000
0.09776100 0.08750300 4.46248293 0.000000
-0.09423700 0.08052700 4.54730415 0.000000
-0.09962200 0.09054300 4.52976894 0.000000
0.08727000 0.10648300 4.43552113 0.000000
-0.10777200 0.08313000 4.51376295 0.000000
0.10461500 0.09681000 4.53620005 0.000000
-0.05565400 0.07829400 4.60637283 0.000000
0.09674500 0.11224700 4.51970482 0.000000
-0.06825800 0.09034400 4.58431816 0.000000
0.09765100 0.10722600 4.58154583 0.000000
-0.01112700 0.11436600 4.62304783 0.000000
-0.01759800 0.10464000 4.62563610 0.000000
0.11709600 0.06588600 4.51462603 0.000000
0.11602100 0.06561900 4.50848913 0.000000
0.12893900 0.02612800 4.51159191 0.000000
-0.08935700 0.01254500 4.58808088 0.000000
-0.09151700 0.06098900 4.56059980 0.000000
-0.06905100 0.07107400 4.59321690 0.000000
0.13310800 0.01989700 4.52693081 0.000000
0.13553300 0.00825700 4.51893711 0.000000
-0.06845300 0.00456400 4.63278389 0.000000
-0.07067200 0.01272700 4.62362099 0.000000
-0.07310900 0.02669600 4.61064720 0.000000
0.04150000 0.06735500 4.34437609 0.000000
0.03638200 0.07129700 4.33089399 0.000000
0.03588900 0.07559900 4.32767916 0.000000
-0.14477600 0.06970100 4.41315413 0.000000
-0.13313501 0.05946500 4.43271303 0.000000
0.06010900 0.10165800 4.36947107 0.000000
-0.14535700 0.07713900 4.41752481 0.000000
0.51844299 -0.04581000 5.15181684 0.000000
0.39267600 -0.13842000 5.59355879 0.000000
0.56236202 -0.03740200 5.15575600 0.000000
0.38379899 -0.14904100 5.61991310 0.000000
0.49519899 -0.02250800 5.22182798 0.000000
0.47437501 -0.14817600 5.60666609 0.000000
0.46591499 -0.06124600 5.23940420 0.000000
0.47604200 -0.04360900 5.22549391 0.000000
0.46513000 -0.06573100 5.24890089 0.000000
0.47010899 -0.17545301 5.55446577 0.000000
0.46928301 -0.18728100 5.53411102 0.000000
0.45697901 -0.15293100 5.56818914 0.000000
0.47232601 -0.18915699 5.53628683 0.000000
0.53514600 -0.06919900 5.33243895 0.000000
0.52593201 -0.01809000 5.30323410 0.000000
0.53812999 -0.02943400 5.31659412 0.000000
0.53765500 -0.10948800 5.35224104 0.000000
0.53763199 -0.10959600 5.35227394 0.000000
0.52523500 -0.05955800 5.32139397 0.000000
0.53215498 -0.07563100 5.33330393 0.000000
0.51133603 -0.25934801 5.63360023 0.000000
0.52042502 -0.25498500 5.65581989 0.000000
0.49584001 -0.27359599 5.59716082 0.000000
0.49843299 -0.25063300 5.59888887 0.000000
0.51710999 -0.20478299 5.63671923 0.000000
0.48942101 -0.28191999 5.58258009 0.000000
0.48850200 -0.27634901 5.57905579 0.000000
0.49532199 -0.10697500 5.33128881 0.000000
0.51291698 -0.05834300 5.31440592 0.000000
0.51570201 -0.08871500 5.33020401 0.000000
0.49548399 -0.08687500 5.32159901 0.000000
0.49121401 -0.26385799 5.57690477 0.000000
0.50420803 -0.24064100 5.57292700 0.000000
0.50268400 -0.24359100 5.57277012 0.000000
0.49202400 -0.26990199 5.55601597 0.000000
0.49592000 -0.05252600 5.17575979 0.000000
0.50629997 -0.04377500 5.17859411 0.000000
0.41283301 -0.14302200 5.56963205 0.000000
0.41017699 -0.14567199 5.54675579 0.000000
0.51191801 -0.02501200 5.20195007 0.000000
0.47589400 -0.05383500 5.20948887 0.000000
0.52045602 -0.02718800 5.18554306 0.000000
0.51001501 -0.03097300 5.19514418 0.000000
0.43466601 -0.14510100 5.58239794 0.000000
0.42759201 -0.14055900 5.59666395 0.000000
0.41522700 -0.13936999 5.58967876 0.000000
0.41610900 -0.14213900 5.57748508 0.000000
0.63200200 -0.08607200 5.22775888 0.000000
0.36289001 -0.22117800 5.62771082 0.000000
0.36709899 -0.20285399 5.63576221 0.000000
0.37207401 -0.20023499 5.64405394 0.000000
0.62615502 -0.03800500 5.21706581 0.000000
0.63385803 -0.06506700 5.23352909 0.000000
0.62833899 -0.03819100 5.22268009 0.000000
0.40470600 -0.22690600 5.69437218 0.000000
0.39574501 -0.22734299 5.68022394 0.000000
0.61118901 -0.08369800 5.32777214 0.000000
0.61997902 -0.09862200 5.31720591 0.000000
0.62348503 -0.05498200 5.31424904 0.000000
0.46268201 -0.30773500 5.64298487 0.000000
0.44677299 -0.32112300 5.64435482 0.000000
0.59823102 -0.08882200 5.34739399 0.000000
0.59746802 -0.08586400 5.35033321 0.000000
0.61424202 -0.06747900 5.32537699 0.000000
0.47192299 -0.28588000 5.67033100 0.000000
0.48844001 -0.29079801 5.66777992 0.000000
0.47146001 -0.27700499 5.68629980 0.000000
0.49574399 -0.02547300 5.24894810 0.000000
0.49221301 -0.03165600 5.25387096 0.000000
0.50026703 -0.02135400 5.26141119 0.000000
0.48291099 -0.05134000 5.28362083 0.000000
0.48154300 -0.05196800 5.27680397 0.000000
0.48302799 -0.16848700 5.59127903 0.000000
0.48208100 -0.18599600 5.56061983 0.000000
0.50870502 -0.18569900 5.62173414 0.000000
0.47779500 -0.17449901 5.56957579 0.000000
0.48475099 -0.05162400 5.28674078 0.000000
0.49349201 -0.06257700 5.30502319 0.000000
0.48668501 -0.08601000 5.31345320 0.000000
0.49874300 -0.04661200 5.30001688 0.000000
0.50269002 -0.21616399 5.57680607 0.000000
0.48817500 -0.20182100 5.55258989 0.000000
0.49106500 -0.20069100 5.56064510 0.000000
0.51007903 -0.20189799 5.60662317 0.000000
0.49833000 -0.23693500 5.54919720 0.000000
0.08866400 -0.18904600 4.50509977 0.000000
0.06676400 -0.20258100 4.50122499 0.000000
-0.03203200 -0.20029400 4.52603197 0.000000
0.03987100 -0.20765001 4.47669697 0.000000
0.02815900 -0.20666800 4.45343781 0.000000
-0.01651200 -0.21459199 4.50677013 0.000000
-0.01111900 -0.27871999 4.63705921 0.000000
0.09740600 -0.25184399 4.55276012 0.000000
0.08130900 -0.24528299 4.53873587 0.000000
0.00503500 -0.26803800 4.57147312 0.000000
0.08096500 -0.23876500 4.53337717 0.000000
0.06516200 -0.26631901 4.54278898 0.000000
-0.01249500 -0.24293500 4.56350088 0.000000
-0.02239700 -0.23212700 4.57238197 0.000000
0.39058799 -0.37618899 5.52760887 0.000000
0.40065101 -0.37708101 5.51906109 0.000000
0.00759500 0.40831599 4.44089317 0.000000
0.00898500 0.40971500 4.44944477 0.000000
-0.13172600 0.10874700 4.47697115 0.000000
0.07501400 0.11196500 4.39757013 0.000000
-0.12276500 0.10024700 4.49027777 0.000000
0.06242900 0.08826600 4.38155222 0.000000
0.06113500 0.07651900 4.38464594 0.000000
-0.13071100 0.08774600 4.46013880 0.000000
0.06343600 0.07099900 4.38964605 0.000000
0.07057000 0.08162700 4.40109777 0.000000
-0.11996100 0.06243300 4.47169399 0.000000
-0.11732000 0.06042500 4.47932196 0.000000
0.00034600 0.20959400 4.28409815 0.000000
-0.01925300 0.32199901 4.34933519 0.000000
-0.12369300 0.36476499 4.39148998 0.000000
-0.10913800 0.39750499 5.13157892 0.000000
0.34474400 0.36186299 5.12204313 0.000000
-0.07856200 0.32352099 5.11618805 0.000000
-0.03235500 0.44330201 4.41221094 0.000000
0.06627900 0.01732100 4.40394402 0.000000
0.06389200 0.01274000 4.40061283 0.000000
0.05780200 0.03093300 4.38644123 0.000000
0.07684000 0.06175500 4.41410017 0.000000
-0.11902600 0.05063600 4.46684408 0.000000
-0.11290100 0.00730700 4.45375586 0.000000
-0.11144600 0.03108000 4.47636986 0.000000
-0.10975600 0.00101700 4.45908499 0.000000
0.07348200 0.01876200 4.41405487 0.000000
0.09004300 0.03639000 4.43566799 0.000000
0.08811900 0.04995700 4.43227386 0.000000
0.08814300 0.06071400 4.43169785 0.000000
0.08107800 0.00867600 4.42499781 0.000000
-0.10213000 0.00148200 4.51786613 0.000000
-0.10780100 0.02727500 4.48994017 0.000000
-0.10384100 -0.00445500 4.49368382 0.000000
-0.10694900 0.03206700 4.50409412 0.000000
-0.10376400 0.00903600 4.50996113 0.000000
-0.10530300 -0.01897300 4.46217299 0.000000
0.39079401 -0.14104401 5.54324007 0.000000
0.41067401 -0.15441200 5.51304913 0.000000
0.38235199 -0.15021300 5.50202799 0.000000
0.40702900 -0.16338500 5.48989677 0.000000
0.37605900 -0.15415899 5.48587322 0.000000
0.40443301 -0.16402000 5.48645782 0.000000
0.39117599 -0.15298501 5.50033379 0.000000
0.40165299 -0.15600599 5.50191307 0.000000
0.58846700 0.15177700 5.23834896 0.000000
0.48394001 -0.08811100 5.76543617 0.000000
0.48470899 -0.08671400 5.76719379 0.000000
0.57144600 0.15709700 5.25317287 0.000000
0.51236999 -0.07775200 5.77496576 0.000000
0.28899699 0.20754100 5.11830616 0.000000
0.02793500 0.24305800 5.09533119 0.000000
0.28783199 0.20728700 5.11742496 0.000000
0.03569400 0.23037601 5.08207178 0.000000
0.29212201 0.27384400 5.15096521 0.000000
0.00486100 0.31521600 5.09658909 0.000000
-0.00859800 0.34730899 5.11105919 0.000000
0.27660200 0.11525900 5.03676081 0.000000
0.27362901 0.10482600 5.02197790 0.000000
0.07162200 0.10318200 5.05124283 0.000000
0.06229000 0.11791700 5.07195807 0.000000
0.27241799 0.12967300 5.04589796 0.000000
0.27566400 0.12715800 5.04835320 0.000000
0.06493900 0.12899600 5.05999804 0.000000
0.06028400 0.14044900 5.06797886 0.000000
0.35630801 -0.16117400 5.44937086 0.000000
0.27050701 0.36423701 5.16796780 0.000000
-0.02511300 0.39397499 5.08778811 0.000000
-0.03500900 0.42225900 5.08717680 0.000000
-0.04431000 0.41665700 5.07108879 0.000000
0.11967200 0.04018000 4.57894182 0.000000
0.11852600 0.05088600 4.59731293 0.000000
0.10832900 0.07855500 4.58261395 0.000000
-0.02721700 0.03138400 4.66578484 0.000000
-0.03183600 0.04579500 4.64942598 0.000000
-0.02520800 0.03821900 4.66382980 0.000000
0.12164200 0.03943700 4.57309818 0.000000
-0.03139000 0.07795600 4.63063812 0.000000
-0.03946700 0.06522200 4.63077211 0.000000
-0.00773800 0.01293300 4.32424784 0.000000
-0.00763900 0.02280900 4.31986713 0.000000
0.04366900 -0.01507300 4.38199091 0.000000
0.03441700 -0.01810600 4.37524986 0.000000
0.03597100 -0.00999000 4.37294197 0.000000
-0.10255000 -0.01177100 4.38440514 0.000000
-0.09680600 -0.02855100 4.40310907 0.000000
-0.10391000 -0.00676500 4.37538815 0.000000
-0.09841600 -0.01910900 4.37682915 0.000000
-0.10662800 -0.00944500 4.41371107 0.000000
0.01869600 0.02739500 4.34408998 0.000000
0.03039900 0.02810400 4.35544205 0.000000
0.03586200 0.01122700 4.36546516 0.000000
0.02390900 0.02779300 4.34912395 0.000000
0.02116000 0.01479700 4.34997988 0.000000
0.05204700 0.02066800 4.37884188 0.000000
-0.12162300 0.03629000 4.39347792 0.000000
-0.11640200 0.01414200 4.43841791 0.000000
-0.12097100 0.03365800 4.39811802 0.000000
-0.12725300 0.04770800 4.43567514 0.000000
-0.11686700 0.02510200 4.36904907 0.000000
-0.08192600 0.00859500 4.26327801 0.000000
-0.07203000 0.02742600 4.25721502 0.000000
-0.09498000 0.00527800 4.27037811 0.000000
-0.09536700 0.00193000 4.27369308 0.000000
-0.08006100 -0.03469200 4.28380489 0.000000
-0.04241700 -0.04484000 4.31099701 0.000000
-0.04765800 -0.03004100 4.30005503 0.000000
-0.06400700 -0.00972000 4.27863503 0.000000
-0.10240200 0.00252100 4.28652096 0.000000
-0.09182100 -0.02404300 4.30060816 0.000000
-0.08352200 -0.05287500 4.32896280 0.000000
0.12887700 0.01062900 4.50044584 0.000000
0.11715700 0.00186700 4.47960711 0.000000
0.12095600 0.00691600 4.48682880 0.000000
0.13502900 0.00410400 4.50903320 0.000000
-0.09517400 -0.00653100 4.55829287 0.000000
-0.09220500 0.03732900 4.56435299 0.000000
-0.09240700 0.00917700 4.57144690 0.000000
-0.09339700 0.01415600 4.56357908 0.000000
0.09907200 0.04814100 4.45447779 0.000000
0.10484500 0.03284700 4.46479321 0.000000
0.10197700 0.01647300 4.45467281 0.000000
-0.10151100 0.02083700 4.52979612 0.000000
-0.10228900 0.04555700 4.52726412 0.000000
-0.09630500 0.05076800 4.54415894 0.000000
-0.09819500 0.06110200 4.53866577 0.000000
0.07213600 0.09863400 4.67833424 0.000000
0.04640000 0.09565500 4.68464899 0.000000
0.06566100 0.10051300 4.67886114 0.000000
0.06438100 0.12804800 4.65090513 0.000000
0.06728600 0.12913600 4.64521694 0.000000
0.03951000 0.12296200 4.65709496 0.000000
0.02941300 0.12483300 4.65330315 0.000000
0.12040200 0.05642300 4.56300306 0.000000
-0.05656100 0.01630300 4.63997412 0.000000
-0.05100300 0.02333100 4.64191723 0.000000
0.11816000 0.07027700 4.52967787 0.000000
0.12945101 0.03930700 4.55198812 0.000000
-0.05538900 0.04792600 4.62461090 0.000000
-0.06198000 0.06295900 4.60797024 0.000000
0.10770800 0.08131400 4.62836599 0.000000
0.10097400 0.10249000 4.61510801 0.000000
-0.01384700 0.03455600 4.68132305 0.000000
0.00661200 0.06692100 4.68122292 0.000000
0.10092700 0.10239300 4.59182501 0.000000
0.10839800 0.08182300 4.60053301 0.000000
-0.01137100 0.07758600 4.65439510 0.000000
-0.01830600 0.08526400 4.64059496 0.000000
0.09488100 0.10006500 4.64416885 0.000000
0.09200000 0.10625600 4.64492702 0.000000
0.03252000 0.08161200 4.69162703 0.000000
0.02703400 0.10533000 4.66854382 0.000000
0.02885800 0.07937100 4.69005680 0.000000
0.09131000 0.11490400 4.62470818 0.000000
0.00804400 0.08679000 4.66865921 0.000000
-0.01160900 0.00276600 4.32520008 0.000000
-0.01046300 -0.02641900 4.33790922 0.000000
-0.00630400 -0.02081300 4.34049606 0.000000
-0.01633300 -0.04391600 4.33799887 0.000000
-0.08411200 -0.05737900 4.34292793 0.000000
-0.09181700 -0.03677100 4.35339594 0.000000
-0.09248200 -0.03444100 4.36387491 0.000000
-0.04124900 0.01861000 4.28768015 0.000000
-0.03830600 -0.01680600 4.30365610 0.000000
-0.03498900 -0.02472400 4.30994606 0.000000
-0.04408400 0.02839800 4.28119802 0.000000
-0.03274700 -0.00231000 4.30403280 0.000000
-0.10770400 0.00971700 4.30601883 0.000000
-0.09497000 -0.02580100 4.32001591 0.000000
-0.09607300 -0.02223500 4.31535292 0.000000
-0.10848700 0.01288600 4.29821920 0.000000
-0.09923900 -0.01542700 4.32615089 0.000000
0.14501300 -0.01518500 4.55128384 0.000000
0.14270100 -0.02076000 4.52588987 0.000000
-0.07092700 -0.01179100 4.63505697 0.000000
-0.07568100 -0.00422200 4.62271214 0.000000
-0.08120300 -0.03022500 4.62285089 0.000000
0.15912600 -0.04926700 4.56449509 0.000000
0.14716300 -0.00872300 4.55828285 0.000000
-0.06539300 -0.03858800 4.66531181 0.000000
-0.07313200 -0.04094500 4.64337921 0.000000
-0.06897100 -0.04196400 4.65647411 0.000000
0.08668800 -0.02583100 4.43915892 0.000000
0.07640900 -0.04538200 4.43128920 0.000000
0.07722900 -0.02596700 4.42589808 0.000000
0.09161100 -0.05763900 4.45680380 0.000000
0.08178600 -0.08001100 4.45052481 0.000000
0.08020700 -0.08148400 4.44879913 0.000000
-0.09139000 -0.05591800 4.49644804 0.000000
-0.08306300 -0.07423300 4.52517509 0.000000
-0.09666400 -0.04469300 4.47735405 0.000000
-0.08510200 -0.07786100 4.49860287 0.000000
-0.09787700 -0.02349100 4.51780081 0.000000
-0.09556800 -0.02638300 4.53103590 0.000000
-0.08706200 -0.06049400 4.52328491 0.000000
0.10444100 -0.07885200 4.47805405 0.000000
0.10405400 -0.05281800 4.47048903 0.000000
0.10219800 -0.06855100 4.47270298 0.000000
0.11150400 -0.06699800 4.48277807 0.000000
0.11010700 -0.08564800 4.48630905 0.000000
-0.08772300 -0.05563400 4.54497290 0.000000
-0.07753800 -0.09447100 4.52481508 0.000000
-0.08542400 -0.06648500 4.56807423 0.000000
-0.08554100 -0.06564600 4.56309605 0.000000
-0.09190700 -0.03974500 4.55410290 0.000000
0.09705100 0.15336300 4.43429708 0.000000
0.10037200 0.14523301 4.44686079 0.000000
-0.12181100 0.13265499 4.52236509 0.000000
0.08533400 0.20096000 4.44049692 0.000000
-0.11465500 0.19411001 4.52617121 0.000000
-0.12308300 0.19656500 4.50989103 0.000000
0.06335300 0.13590300 4.35714912 0.000000
0.06993300 0.13847800 4.36852407 0.000000
-0.15849400 0.12470700 4.44336987 0.000000
-0.14083301 0.13028900 4.47850084 0.000000
0.04428100 0.17472699 4.33712006 0.000000
-0.15362801 0.17417000 4.45143414 0.000000
0.04125400 0.19622201 4.33994102 0.000000
-0.16307500 0.17244300 4.42699194 0.000000
0.05361800 0.15496400 4.57750416 0.000000
-0.00113300 0.19700401 4.56331205 0.000000
-0.02157900 0.21442699 4.55673981 0.000000
-0.05097400 0.15571199 4.57736111 0.000000
-0.04114500 0.14059000 4.58398581 0.000000
-0.03965800 0.19681001 4.56640911 0.000000
-0.05224700 0.20070501 4.56548595 0.000000
0.05293900 0.11925400 4.32387114 0.000000
0.01358900 0.17411201 4.27929306 0.000000
-0.18719800 0.15672500 4.36875296 0.000000
0.01133700 0.18406899 4.27615786 0.000000
-0.11579100 0.10446500 4.21955585 0.000000
-0.11493500 0.09531100 4.21227312 0.000000
-0.14624199 0.07784300 4.21652317 0.000000
0.06311800 0.15587901 4.56029510 0.000000
0.04920600 0.19899200 4.53725386 0.000000
0.05301300 0.21518700 4.52270985 0.000000
-0.07519000 0.09904300 4.23367500 0.000000
-0.07806900 0.09117900 4.23145390 0.000000
-0.06776500 0.08873000 4.23711109 0.000000
-0.15274200 0.07769400 4.27903795 0.000000
-0.16313399 0.14670400 4.28709221 0.000000
-0.07332500 0.17781600 4.24778318 0.000000
-0.15260400 0.16306600 4.28030300 0.000000
-0.06905500 0.15440100 4.57241821 0.000000
0.08749600 0.14702600 4.52214193 0.000000
0.08450300 0.19357400 4.50875187 0.000000
-0.06021100 0.20602100 4.56371689 0.000000
-0.08503300 0.19472100 4.56030798 0.000000
0.03605000 0.13711800 4.31481504 0.000000
-0.16977300 0.11202500 4.42133093 0.000000
-0.15961000 0.13097900 4.43505716 0.000000
0.03027700 0.16772699 4.30533886 0.000000
0.02295000 0.18367600 4.29721403 0.000000
-0.17473701 0.17952900 4.40115023 0.000000
-0.13762000 0.13723300 4.48733902 0.000000
0.08867300 0.14812900 4.41264915 0.000000
0.06843000 0.20792000 4.40144110 0.000000
-0.14485499 0.17868400 4.47161388 0.000000
0.06361600 0.19039500 4.37987900 0.000000
-0.14462100 0.18041299 4.47139883 0.000000
-0.09222900 0.10196000 4.22601223 0.000000
-0.14714500 0.08808500 4.22318316 0.000000
-0.15018800 0.07801200 4.23052979 0.000000
-0.08538900 0.16458599 4.24610281 0.000000
-0.14864200 0.16775601 4.27697515 0.000000
-0.14583200 0.17222400 4.27592421 0.000000
-0.19345000 0.15708099 4.35097599 0.000000
-0.19424300 0.16650200 4.33741903 0.000000
-0.17689300 0.11911000 4.36080980 0.000000
-0.00345400 0.10972000 4.25768423 0.000000
-0.02466500 0.15822400 4.24500513 0.000000
-0.03575600 0.17257901 4.24306822 0.000000
-0.17602600 0.15342300 4.30163813 0.000000
-0.02120700 0.11830000 4.25433397 0.000000
-0.05015500 0.10030600 4.24212122 0.000000
0.10228200 0.15839800 4.47984791 0.000000
-0.10678200 0.13664199 4.54641581 0.000000
-0.09775800 0.14163201 4.55548811 0.000000
0.09473200 0.19140200 4.46298885 0.000000
-0.10279600 0.18425000 4.54718208 0.000000
0.08569700 0.21028800 4.47362518 0.000000
-0.11152300 0.41729999 4.38384295 0.000000
-0.11420300 0.28955400 4.46053696 0.000000
0.01515200 0.31685400 4.39863920 0.000000
-0.11204300 0.28765100 4.46602917 0.000000
-0.08269800 0.30383199 4.49927902 0.000000
0.02604500 0.32573199 4.44754505 0.000000
0.01356100 0.27600601 4.36264610 0.000000
0.00682500 0.30836901 4.37579584 0.000000
-0.12859100 0.28328300 4.43067408 0.000000
-0.10091100 0.37020901 4.33976221 0.000000
0.08869000 0.08103300 4.69615698 0.000000
0.03028800 -0.24123400 4.53583908 0.000000
0.00806900 -0.22465999 4.50797892 0.000000
0.03378300 -0.23754001 4.52699184 0.000000
0.00585700 -0.24024300 4.53059912 0.000000
-0.09898200 0.21043301 4.26311016 0.000000
-0.11300500 0.20287600 4.26819611 0.000000
-0.11876700 0.19655401 4.26857615 0.000000
-0.03712900 0.31974000 4.50307178 0.000000
-0.03750800 0.43343499 4.42733383 0.000000
-0.01497500 0.40225500 4.44770002 0.000000
-0.03671100 0.38670301 4.46703291 0.000000
-0.04425100 0.38536000 4.47004509 0.000000
0.03157700 0.16951700 4.52653694 0.000000
-0.00955000 0.16914199 4.53527308 0.000000
-0.00270900 0.16992800 4.54875612 0.000000
-0.00601100 0.16399500 4.48713398 0.000000
-0.00047800 0.16524699 4.48800087 0.000000
-0.02651100 0.16482700 4.49747276 0.000000
0.00610500 0.24442400 4.52767897 0.000000
-0.01729600 0.24733301 4.53321886 0.000000
0.00526800 0.25847000 4.51964903 0.000000
-0.01577900 0.27181301 4.51997614 0.000000
-0.13119900 0.16741300 4.26387691 0.000000
-0.11601700 0.17896000 4.26194811 0.000000
0.04043400 0.16505000 4.57347918 0.000000
0.02859100 0.16718900 4.57770586 0.000000
-0.08254100 0.44261199 4.38598299 0.000000
0.03148000 0.19097100 4.53079414 0.000000
0.02519300 0.18152900 4.53913307 0.000000
0.01101000 0.28337601 4.49972010 0.000000
-0.02004300 0.24139699 4.53066778 0.000000
-0.00743900 0.20755100 4.54105806 0.000000
0.00704700 0.17840900 4.54924583 0.000000
-0.01503100 0.19213299 4.54857206 0.000000
-0.00572700 0.28167301 4.50522900 0.000000
-0.01525300 0.30692801 4.49569416 0.000000
-0.03342400 0.30996600 4.50640297 0.000000
-0.01491800 0.26762900 4.51723003 0.000000
-0.01798100 0.26404899 4.52139616 0.000000
-0.00024400 0.31001201 4.49394989 0.000000
0.00186700 0.29049200 4.50322104 0.000000
-0.01068900 0.28393799 4.51278496 0.000000
-0.03918000 0.44781101 4.43115711 0.000000
0.07467200 0.13058200 4.62732077 0.000000
0.03453800 0.14391001 4.61930084 0.000000
0.04990000 0.14176700 4.62948084 0.000000
0.04677200 0.13971899 4.63388586 0.000000
-0.11564700 0.41115901 4.39187002 0.000000
-0.06069900 0.44862100 4.42559910 0.000000
-0.08510300 0.42728099 4.46426392 0.000000
-0.01747500 0.35970801 4.36236191 0.000000
-0.11207200 0.39166301 4.36724281 0.000000
-0.05398300 0.40211201 4.34656811 0.000000
0.00577400 0.34545600 4.39267397 0.000000
0.01584800 0.34052601 4.41008806 0.000000
-0.11089200 0.32332399 4.45482588 0.000000
0.00071700 0.34233999 4.38276815 0.000000
0.00156200 0.33536601 4.38155079 0.000000
-0.01343800 0.41799000 4.38825893 0.000000
-0.01942200 0.43184200 4.40020323 0.000000
-0.00591900 0.40025601 4.39244509 0.000000
-0.07871100 0.43808499 4.45289707 0.000000
-0.01367800 0.43463799 4.41644478 0.000000
-0.01864000 0.43398401 4.40584421 0.000000
-0.10757400 0.41348100 4.43690109 0.000000
-0.11422500 0.37232000 4.43508387 0.000000
-0.00503400 0.33202901 4.37124586 0.000000
0.00275900 0.29352999 4.35963488 0.000000
-0.00891700 0.26863500 4.33332205 0.000000
-0.00720300 0.30425799 4.35391998 0.000000
-0.13646200 0.27600601 4.39932823 0.000000
-0.17265099 0.21566799 4.33563995 0.000000
-0.04698000 0.24536601 4.28662300 0.000000
-0.03119100 0.33941999 4.34311819 0.000000
-0.12802400 0.31526399 4.38335085 0.000000
-0.13148300 0.29363701 4.37592077 0.000000
-0.12677900 0.31364900 4.40564203 0.000000
-0.12087000 0.34633401 4.41646099 0.000000
-0.04777200 0.43979201 4.46071720 0.000000
-0.16311000 0.50017399 5.15602112 0.000000
-0.15651400 0.53606099 5.10335112 0.000000
-0.15814900 0.49737099 5.13180208 0.000000
0.29112500 0.54325700 5.10669994 0.000000
-0.13974300 0.55495399 5.08974218 0.000000
0.32674199 0.49168599 5.11344099 0.000000
0.32118499 0.52709401 5.10231495 0.000000
0.26512599 0.51451898 5.12956905 0.000000
0.62468803 0.12746000 5.97553015 0.000000
0.62831199 0.07069900 6.00082779 0.000000
0.26310199 0.43736801 5.16113997 0.000000
0.26292399 0.45436999 5.15978289 0.000000
0.55360198 0.42113000 5.16771698 0.000000
0.60811800 0.11193100 5.96989012 0.000000
0.61251998 0.40379500 5.25901985 0.000000
0.61745697 0.00601900 6.00311804 0.000000
0.62699902 0.05033200 5.99266815 0.000000
0.62572801 0.06268900 5.98169088 0.000000
0.64918399 0.43560499 5.14131498 0.000000
0.62428498 0.05864800 5.97431898 0.000000
0.63329601 -0.01954500 5.30067778 0.000000
0.62843502 -0.02065400 5.31095219 0.000000
0.63188100 0.00117500 5.30716610 0.000000
0.45918900 -0.25077599 5.71247387 0.000000
0.45141199 -0.22504000 5.73531914 0.000000
0.63492298 -0.02418800 5.27439785 0.000000
0.63555199 -0.02381200 5.26877594 0.000000
0.44394299 -0.23440801 5.71886778 0.000000
0.43952999 -0.24896801 5.69844913 0.000000
0.45343599 -0.23995100 5.72050381 0.000000
0.64029098 0.00029300 5.26428413 0.000000
0.63821000 -0.01549100 5.25177193 0.000000
0.42106101 -0.21008000 5.71879721 0.000000
0.41859800 -0.19989701 5.72025204 0.000000
0.43665501 -0.21600001 5.73183012 0.000000
0.63206297 0.00550000 5.22975111 0.000000
0.63004601 -0.00144300 5.22515488 0.000000
0.39994499 -0.18222700 5.69996023 0.000000
0.40650201 -0.19077200 5.70939398 0.000000
0.30499399 -0.19986799 5.52938318 0.000000
0.31487301 -0.18273100 5.53334808 0.000000
0.31086099 -0.20300500 5.54223013 0.000000
0.31205299 -0.16317700 5.50881481 0.000000
0.36604699 -0.17495701 5.61091423 0.000000
0.37065101 -0.16615801 5.61178780 0.000000
0.59478801 -0.03602500 5.17632818 0.000000
0.61709899 -0.03688200 5.19696617 0.000000
0.38045499 -0.19275901 5.65514612 0.000000
0.37962499 -0.17758900 5.64325714 0.000000
0.37234199 -0.18470900 5.63534403 0.000000
0.54484099 0.05881100 5.22071409 0.000000
0.44945899 -0.11736600 5.66130877 0.000000
0.46825901 -0.11296800 5.68182516 0.000000
0.54672003 0.03034000 5.19831610 0.000000
0.44200200 -0.11804300 5.66748285 0.000000
0.51670599 -0.00616800 5.21445179 0.000000
0.51481003 0.01828100 5.24037504 0.000000
0.51880598 0.02686600 5.24417782 0.000000
0.47578999 -0.14164300 5.62391710 0.000000
0.47866699 -0.13992400 5.63169813 0.000000
0.45581001 -0.12265600 5.64579916 0.000000
0.63192701 0.04325800 5.23317099 0.000000
0.43215701 -0.16587600 5.75446415 0.000000
0.43191099 -0.15121999 5.74521494 0.000000
0.62390602 0.03246000 5.22004414 0.000000
0.41476500 -0.14889599 5.71045685 0.000000
0.40973800 -0.14729699 5.69424009 0.000000
0.54504198 0.00792700 5.31564188 0.000000
0.55212498 -0.01441400 5.32422495 0.000000
0.52640098 0.01770800 5.29855013 0.000000
0.52221203 -0.21361500 5.65589094 0.000000
0.52354902 -0.21137699 5.66194677 0.000000
0.51937097 -0.20039199 5.64171124 0.000000
0.56718397 -0.02425600 5.33855820 0.000000
0.57012397 0.01599300 5.33812618 0.000000
0.56382799 0.00049200 5.33344793 0.000000
0.56813699 0.02333500 5.33568001 0.000000
0.52692199 -0.23636100 5.68359089 0.000000
0.52888399 -0.19902000 5.68798780 0.000000
0.52855498 -0.22983301 5.69295883 0.000000
0.53150499 -0.21353400 5.70883179 0.000000
0.59644401 0.07403300 5.35989094 0.000000
0.53903902 -0.21013901 5.74376011 0.000000
0.58651400 0.03765300 5.34917402 0.000000
0.52822202 -0.22775000 5.76616621 0.000000
0.62259501 0.04706200 5.34750986 0.000000
0.51508999 -0.22556899 5.76789379 0.000000
0.61683798 0.02933400 5.34848881 0.000000
0.49768600 -0.23748200 5.74191093 0.000000
0.50469601 -0.00579800 5.22842121 0.000000
0.51059902 0.00566100 5.24197388 0.000000
0.51340199 0.01128700 5.24800014 0.000000
0.50240499 -0.16077600 5.64198685 0.000000
0.50044799 -0.15324900 5.64727879 0.000000
0.49573201 -0.16240001 5.62776613 0.000000
0.52796000 0.03033100 5.28850794 0.000000
0.52094603 0.01636100 5.28156090 0.000000
0.50490397 -0.15202700 5.65727806 0.000000
0.52035999 -0.16661599 5.67297316 0.000000
0.64443201 0.03129700 5.28974009 0.000000
0.63945401 0.05367900 5.31557894 0.000000
0.49047300 -0.20963700 5.77803516 0.000000
0.63783002 0.03376600 5.30749893 0.000000
0.63054502 0.03923500 5.32777786 0.000000
0.48167101 -0.22997600 5.74377298 0.000000
0.46917900 -0.22613700 5.74171114 0.000000
0.64152402 0.06330400 5.25532579 0.000000
0.64420098 0.05403000 5.27314711 0.000000
0.44356501 -0.19379000 5.75274420 0.000000
0.45368099 -0.20441100 5.75962782 0.000000
0.63632298 0.04439800 5.24001884 0.000000
0.63568801 0.03271100 5.24216223 0.000000
0.43167099 -0.18180101 5.74498177 0.000000
0.43822500 -0.20371699 5.73868179 0.000000
0.60978699 0.08918100 5.23063993 0.000000
0.45202801 -0.10993900 5.73280811 0.000000
0.58931398 0.08506300 5.22107506 0.000000
0.43250799 -0.12556200 5.71840096 0.000000
0.44084400 -0.11815200 5.72171116 0.000000
0.54160398 0.09331700 5.27450085 0.000000
0.52647799 -0.11741600 5.72884512 0.000000
0.54562300 0.09334600 5.26009321 0.000000
0.57007599 0.11350200 5.34230900 0.000000
0.58691198 0.11051800 5.35819197 0.000000
0.55587000 -0.16624300 5.77283716 0.000000
0.56549501 0.11137200 5.33775711 0.000000
0.54890603 -0.17537101 5.75836086 0.000000
0.64100599 0.07126900 5.25563192 0.000000
0.44916201 -0.14657500 5.78197098 0.000000
0.44214299 -0.15947300 5.77106714 0.000000
0.62235600 0.07479800 5.23386908 0.000000
0.43669501 -0.13477600 5.75017691 0.000000
0.64575499 0.10039600 5.33613300 0.000000
0.51147503 -0.20941500 5.80036497 0.000000
0.64650202 0.07730200 5.31293917 0.000000
0.64281499 0.08287900 5.32758188 0.000000
0.48809499 -0.19141200 5.80411386 0.000000
0.52204800 -0.21277900 5.80602598 0.000000
0.62924302 0.08506200 5.36307478 0.000000
0.51891202 -0.21768300 5.78403187 0.000000
0.55342603 0.09102800 5.32358313 0.000000
0.55323702 -0.14726201 5.75962496 0.000000
0.54651499 0.08584600 5.30745697 0.000000
0.52983999 -0.12994000 5.71809101 0.000000
0.55242699 0.08747900 5.23964310 0.000000
0.48125499 -0.10465800 5.71867800 0.000000
0.56979501 0.06576600 5.21050501 0.000000
0.47517100 -0.11024300 5.69628096 0.000000
0.65194601 0.08751300 5.28864908 0.000000
0.46752101 -0.17963700 5.79645205 0.000000
0.64345503 0.06661100 5.26352596 0.000000
0.45543301 -0.17861500 5.78217220 0.000000
-0.13385201 0.27983600 4.35401821 0.000000
-0.04276700 0.30072600 4.32144690 0.000000
-0.02649500 0.29124200 4.33109283 0.000000
-0.02572100 0.23673899 4.30316782 0.000000
0.00857300 0.10186900 4.15919399 0.000000
-0.23656601 0.10131700 4.26030588 0.000000
0.01641200 0.09867500 4.15139294 0.000000
0.03226500 0.11511200 4.18270588 0.000000
-0.24736799 0.11267900 4.28936911 0.000000
0.04455900 0.11552600 4.17426920 0.000000
-0.24152599 0.10469300 4.30909300 0.000000
-0.30244601 0.08200600 4.29918385 0.000000
0.03736300 0.09446400 4.32244205 0.000000
-0.15742600 0.08904700 4.40907097 0.000000
-0.16206600 0.08096600 4.38380384 0.000000
-0.03603400 0.43012401 4.45254183 0.000000
-0.01188100 0.40643600 4.46792698 0.000000
-0.12009600 0.11678500 4.23808384 0.000000
-0.10357000 0.14575399 4.24190378 0.000000
-0.13764100 0.12740900 4.24653578 0.000000
0.33261600 0.57882202 5.11608696 0.000000
-0.18328799 0.56299800 5.13848495 0.000000
0.25626200 0.54880399 5.14557600 0.000000
-0.17134801 0.52703798 5.17516518 0.000000
-0.16466200 0.57769102 5.10591078 0.000000
0.53800303 0.45534900 5.14714384 0.000000
0.59618002 0.15177700 5.95965195 0.000000
0.64535201 0.48697400 5.13010788 0.000000
0.65516001 0.48559299 5.14364386 0.000000
0.59895498 0.45475799 5.10756683 0.000000
0.52311498 0.14763600 6.00033998 0.000000
0.52609599 0.13742900 5.98952484 0.000000
0.56085402 0.15445000 5.95963907 0.000000
0.55766100 0.17051400 5.96830702 0.000000
-0.04096700 0.39186499 4.34741497 0.000000
-0.02066700 0.37436599 4.36064720 0.000000
-0.12371800 0.38231000 4.40197515 0.000000
-0.12022600 0.38342699 4.41733599 0.000000
-0.15636300 0.10802200 4.43731308 0.000000
0.05936300 0.12033400 4.36099100 0.000000
0.04750000 0.08764900 4.28536892 0.000000
0.07117600 0.10222900 4.22773504 0.000000
0.05937300 0.09839200 4.26159811 0.000000
0.07524200 0.07141300 4.18845701 0.000000
-0.26344401 0.06864300 4.33301783 0.000000
-0.25071400 0.07310400 4.34877777 0.000000
0.04320300 0.08752700 4.26754522 0.000000
0.04121900 0.08043300 4.26226616 0.000000
