-0.23258001 -0.37473801 3.92950296 0.000000
-0.25265700 -0.36972001 3.93838596 0.000000
-0.26144600 -0.38647100 3.91453099 0.000000
-0.14215501 -0.20322500 3.92509007 0.000000
-0.14740001 -0.21917200 3.95703197 0.000000
-0.34062600 -0.24629800 3.98317790 0.000000
-0.35727701 -0.21516000 3.99422693 0.000000
-0.36040899 -0.21948500 3.97030497 0.000000
-0.15021600 -0.22313400 3.91273999 0.000000
-0.15873200 -0.25126600 3.91127896 0.000000
-0.16019000 -0.25568199 3.91475105 0.000000
-0.34083200 -0.26069501 3.95025611 0.000000
-0.33311900 -0.27515200 3.94783592 0.000000
-0.33318901 -0.27986100 3.93733692 0.000000
-0.34143201 -0.25420699 3.96210003 0.000000
-0.21811800 -0.34708300 3.92985392 0.000000
-0.20345300 -0.31658301 3.93958902 0.000000
-0.28462401 -0.33019999 3.94904399 0.000000
-0.29008299 -0.33382499 3.92331195 0.000000
-0.28979301 -0.32537299 3.94243789 0.000000
-0.21824500 -0.36531401 3.91455507 0.000000
-0.21856201 -0.35850501 3.92080212 0.000000
-0.27560100 -0.35631400 3.92678595 0.000000
-0.27051300 -0.36153501 3.93439293 0.000000
-0.04690300 0.47702801 4.41550922 0.000000
-0.34599099 0.43134901 4.56273890 0.000000
-0.00417700 0.41652799 4.51688480 0.000000
0.00636300 0.44221199 4.45163488 0.000000
-0.39821699 0.45399201 4.60453987 0.000000
-0.16020800 -0.47534600 3.73789811 0.000000
-0.38282001 -0.46618900 3.74462199 0.000000
-0.14749300 -0.48011801 3.74540496 0.000000
-0.40128201 -0.45990700 3.77033997 0.000000
-0.14516100 -0.41183200 3.72178698 0.000000
-0.40717301 -0.41899201 3.72942901 0.000000
-0.11907300 -0.45098799 3.73314905 0.000000
-0.40788999 -0.42711300 3.72696710 0.000000
-0.14843200 -0.38039699 3.68767691 0.000000
-0.37281701 -0.45921901 3.69801903 0.000000
-0.40289199 -0.47082901 3.71898699 0.000000
-0.15511100 -0.45392799 3.69557905 0.000000
-0.40429100 -0.45393401 3.71553397 0.000000
-0.21020500 -0.37715101 3.52634001 0.000000
-0.17869700 -0.38173100 3.54802799 0.000000
-0.32962099 -0.17929000 3.58488703 0.000000
-0.32688701 -0.17507400 3.57781005 0.000000
-0.21009700 -0.17643800 3.63443089 0.000000
-0.31916299 -0.17924500 3.62835789 0.000000
-0.21542899 -0.16405100 3.64759898 0.000000
-0.31129599 -0.18055500 3.64787698 0.000000
-0.22367400 -0.16261800 3.53784800 0.000000
-0.22930400 -0.16237999 3.57082891 0.000000
-0.28978500 -0.16147500 3.58030701 0.000000
-0.22815800 -0.16245700 3.64203191 0.000000
-0.22213399 -0.16271099 3.56311703 0.000000
-0.29881501 -0.16211499 3.61226201 0.000000
-0.30512899 -0.16282700 3.65962791 0.000000
-0.17772600 -0.32583499 3.54758310 0.000000
-0.17196099 -0.28239301 3.54903793 0.000000
-0.34549001 -0.27049300 3.53774691 0.000000
-0.18957600 -0.19370800 3.56888199 0.000000
-0.18754600 -0.20181400 3.55221510 0.000000
-0.32520700 -0.18549500 3.54738593 0.000000
-0.30166200 -0.16929799 3.48014808 0.000000
-0.21898200 -0.16625100 3.45776701 0.000000
-0.29721001 -0.16181099 3.48739600 0.000000
-0.30206400 -0.15897800 3.55372810 0.000000
-0.29498401 -0.15931199 3.53533411 0.000000
-0.29250401 -0.15866500 3.53364992 0.000000
-0.22930200 -0.15549500 3.44595408 0.000000
-0.23017700 -0.15518001 3.48534799 0.000000
-0.22954200 -0.16286699 3.52800107 0.000000
-0.23054700 -0.16660701 3.50291705 0.000000
-0.30226901 -0.16260700 3.52942109 0.000000
-0.21470501 -0.16269501 3.53526711 0.000000
-0.22082201 -0.17006400 3.43290496 0.000000
-0.23438600 -0.15827900 3.43394804 0.000000
-0.29719299 -0.16700099 3.44224405 0.000000
-0.31842601 -0.16319001 3.59494495 0.000000
0.05182700 -0.32916400 4.81515217 0.000000
0.04571300 -0.32905400 4.81016588 0.000000
0.10570500 -0.34229001 4.84280300 0.000000
0.09406800 -0.33539301 4.83690691 0.000000
0.07833700 -0.33682099 4.82994986 0.000000
0.32174900 -0.10185500 4.61653996 0.000000
0.31858501 -0.10070100 4.61849213 0.000000
0.03086500 -0.15033700 4.75619984 0.000000
0.30355999 -0.11513900 4.60115910 0.000000
0.29445699 -0.11262600 4.60678482 0.000000
0.02178400 -0.17026500 4.74114895 0.000000
0.39226800 -0.17043300 4.74368191 0.000000
0.38790399 -0.14668500 4.75889111 0.000000
0.15334301 -0.17684101 4.85968399 0.000000
0.37537900 -0.17458899 4.74376392 0.000000
0.36887699 -0.16164500 4.75254583 0.000000
0.15195900 -0.19890299 4.85408306 0.000000
0.15938000 -0.17878200 4.84254313 0.000000
0.34596500 -0.07897600 4.64291716 0.000000
0.03459900 -0.12637600 4.79366493 0.000000
0.32939601 -0.08551600 4.63658190 0.000000
0.33500600 -0.08103200 4.64124298 0.000000
0.03464700 -0.13576600 4.77450323 0.000000
0.46194899 -0.08847500 4.74703979 0.000000
0.11238100 -0.08365900 4.91370916 0.000000
0.46223101 -0.10001700 4.77103615 0.000000
0.45378801 -0.06048600 4.69940710 0.000000
0.05872700 -0.08540900 4.86683607 0.000000
0.43731701 -0.04928700 4.69017506 0.000000
0.06350600 -0.07471100 4.88313007 0.000000
-0.10690700 -0.43670401 3.73964500 0.000000
-0.45568401 -0.41837901 3.75514388 0.000000
-0.09802300 -0.42161000 3.74188805 0.000000
-0.45106801 -0.40803701 3.75083208 0.000000
-0.31355301 -0.16165200 3.44595003 0.000000
-0.16346900 -0.31310400 3.56819391 0.000000
-0.16935501 -0.27812600 3.55460691 0.000000
-0.36539501 -0.21813600 3.94920111 0.000000
-0.36838400 -0.20682199 3.96242809 0.000000
-0.36571199 -0.20794401 3.97515702 0.000000
-0.05404700 0.29325801 4.39329195 0.000000
-0.36726201 0.29711199 4.49152994 0.000000
-0.05114400 0.32217899 4.41157913 0.000000
-0.36385900 0.28102100 4.44858599 0.000000
-0.02221400 0.31490999 4.44647503 0.000000
-0.34775800 0.28039899 4.53456116 0.000000
-0.00336000 0.37505400 4.47679615 0.000000
-0.08792900 0.21311000 4.32080984 0.000000
-0.34638199 0.19811700 4.38313103 0.000000
-0.34801701 0.19993401 4.38516808 0.000000
-0.10271700 0.20575000 4.32325888 0.000000
-0.33469400 0.16562399 4.36301279 0.000000
-0.06628000 0.13967501 4.40187788 0.000000
-0.25574800 0.14143901 4.44631910 0.000000
-0.27260500 0.17133500 4.46153498 0.000000
-0.06420700 0.29180601 4.49490213 0.000000
-0.28880301 0.29143500 4.53513908 0.000000
-0.05360300 0.31025001 4.50432920 0.000000
-0.29011601 0.31471899 4.57651091 0.000000
-0.08462000 0.34805301 4.50962210 0.000000
-0.28098199 0.35289401 4.55155897 0.000000
-0.28092900 0.33279100 4.53162289 0.000000
-0.08913800 0.32217300 4.41468716 0.000000
-0.33265099 0.29785100 4.44063377 0.000000
-0.33512700 0.31002599 4.45546484 0.000000
-0.09424300 0.32523000 4.42547894 0.000000
-0.32874501 0.32257599 4.46717882 0.000000
-0.02406000 0.36537200 4.44038296 0.000000
-0.02978800 0.35421199 4.43405294 0.000000
-0.36732599 0.32292199 4.53880310 0.000000
-0.02059400 0.35734901 4.44386578 0.000000
-0.36477199 0.31228799 4.54301214 0.000000
-0.03066900 0.26510400 4.44483089 0.000000
-0.02362600 0.30172399 4.45937681 0.000000
-0.11748300 0.18739800 4.40447617 0.000000
-0.25887501 0.20352900 4.43259907 0.000000
-0.10412500 0.15381400 4.39384317 0.000000
-0.25028801 0.17774101 4.41292095 0.000000
-0.04930200 0.20176700 4.32400990 0.000000
-0.35719201 0.16556400 4.41620398 0.000000
-0.35952100 0.17015600 4.40939283 0.000000
-0.36041999 0.18251599 4.42719889 0.000000
-0.12182700 0.14402300 4.34176493 0.000000
-0.12312500 0.14890000 4.34045219 0.000000
-0.24310900 0.12984499 4.35793018 0.000000
-0.11603600 0.14828700 4.36518383 0.000000
-0.11758300 0.13887499 4.35233021 0.000000
-0.24608700 0.15275000 4.37814188 0.000000
-0.06390500 0.17335600 4.27347088 0.000000
-0.04870600 0.15426201 4.25775909 0.000000
-0.34077901 0.11754100 4.36480999 0.000000
-0.34505501 0.11219700 4.37583208 0.000000
-0.07466700 0.19818400 4.30092907 0.000000
-0.34646901 0.15484500 4.37221098 0.000000
-0.35375699 0.14695901 4.38642216 0.000000
-0.06681900 0.07936200 4.35607910 0.000000
-0.24914600 0.12809300 4.44138622 0.000000
-0.06197700 0.08074000 4.35631990 0.000000
-0.23870300 0.07967900 4.43665695 0.000000
-0.11139600 0.15218000 4.27335310 0.000000
-0.29035300 0.12516201 4.33637810 0.000000
-0.11409300 0.16376300 4.29394197 0.000000
-0.30631199 0.15610901 4.35098124 0.000000
-0.31164101 0.16786200 4.35670614 0.000000
-0.02403500 0.11201900 4.32581520 0.000000
-0.28314301 0.09278000 4.44548416 0.000000
-0.02666800 0.13356601 4.34331417 0.000000
-0.30312201 0.08580600 4.43898916 0.000000
0.00601300 -0.21649501 4.70589018 0.000000
0.00670300 -0.21646801 4.71546078 0.000000
-0.00384100 -0.23880500 4.71261692 0.000000
-0.00890600 -0.26563099 4.74249792 0.000000
-0.01286900 -0.27614599 4.73470306 0.000000
-0.00949500 -0.25573799 4.71156597 0.000000
-0.00510300 -0.24210200 4.71504498 0.000000
-0.01658000 0.20678900 4.91310596 0.000000
0.45967999 -0.08147100 4.72753000 0.000000
0.08781600 -0.07860000 4.90520716 0.000000
0.45603400 -0.08161000 4.71795416 0.000000
0.07310900 -0.08790500 4.89338112 0.000000
-0.22281900 0.09875000 4.35661221 0.000000
-0.22488999 0.09429600 4.34428787 0.000000
-0.12108200 0.10792700 4.29342890 0.000000
-0.11886400 0.10940000 4.31434917 0.000000
-0.24271600 0.12292300 4.35060501 0.000000
-0.20482500 -0.32068801 4.06874514 0.000000
-0.23510300 -0.32374099 4.06507492 0.000000
-0.21498901 -0.32021600 4.06133509 0.000000
-0.22597300 -0.31556299 4.04447985 0.000000
-0.11657600 0.16575301 4.38280201 0.000000
-0.26173899 0.19652499 4.40086222 0.000000
-0.12213200 0.18705601 4.38659811 0.000000
-0.26748699 0.20461100 4.39862108 0.000000
-0.29733199 0.35950801 4.52198982 0.000000
-0.30042601 0.37108800 4.53026009 0.000000
-0.12626700 0.13209701 4.30572510 0.000000
-0.27570400 0.12695400 4.33743620 0.000000
-0.25872499 0.13797300 4.35071802 0.000000
-0.12452900 0.15688600 4.33418322 0.000000
-0.28585401 0.17840201 4.36624479 0.000000
-0.27254099 0.17087001 4.36727190 0.000000
-0.02226400 0.11919000 4.32418394 0.000000
-0.31742999 0.08774800 4.43040180 0.000000
-0.02563100 0.15078600 4.34631491 0.000000
-0.32962999 0.11417400 4.43418503 0.000000
0.10910200 -0.32323700 4.84334517 0.000000
0.10263100 -0.30510199 4.83969593 0.000000
0.10505200 -0.30473399 4.84082603 0.000000
0.07402500 -0.28217900 4.82762623 0.000000
0.09428500 -0.28196901 4.83546400 0.000000
0.05862300 -0.28069699 4.82181215 0.000000
0.05508400 -0.28818199 4.81978321 0.000000
0.34994400 -0.23575200 4.72723484 0.000000
0.34921801 -0.23954700 4.72636700 0.000000
0.15300800 -0.25076500 4.84263802 0.000000
0.15363000 -0.22800900 4.84432507 0.000000
0.33786100 -0.21750399 4.73522806 0.000000
0.34110799 -0.23956200 4.72866488 0.000000
0.31287101 -0.24430500 4.73585081 0.000000
0.15978999 -0.24524300 4.82751608 0.000000
0.16606501 -0.26984799 4.81543493 0.000000
0.16518199 -0.22777601 4.81794786 0.000000
0.30686101 -0.26658601 4.73310995 0.000000
0.33921999 -0.25804299 4.72530413 0.000000
0.16654199 -0.34130001 4.80526495 0.000000
0.17064200 -0.28458199 4.80583811 0.000000
0.16301700 -0.31383899 4.81543589 0.000000
0.15196000 -0.30703700 4.83178091 0.000000
0.15084700 -0.29893899 4.83499908 0.000000
0.38218999 -0.19777501 4.68266821 0.000000
0.37825900 -0.19731000 4.66413403 0.000000
0.37970001 -0.20944600 4.68402719 0.000000
0.38204399 -0.19310100 4.67687798 0.000000
0.08707200 -0.24846900 4.83692312 0.000000
0.07304700 -0.24969800 4.83093977 0.000000
0.09539100 -0.26721600 4.83727884 0.000000
0.10753500 -0.24362899 4.84615183 0.000000
0.37932101 -0.18554699 4.64772606 0.000000
0.37496200 -0.19157100 4.63685608 0.000000
0.38220400 -0.17372400 4.63874292 0.000000
0.08386600 -0.21194500 4.84347010 0.000000
0.05932400 -0.19901700 4.83917522 0.000000
0.08038600 -0.20578600 4.84417105 0.000000
-0.00609300 -0.30621600 4.75148392 0.000000
0.04020000 -0.33138499 4.80425215 0.000000
0.03066300 -0.31682301 4.79311895 0.000000
0.01118000 -0.31416500 4.77113199 0.000000
0.03433500 -0.25259200 4.80791092 0.000000
0.00721900 -0.26182899 4.76748180 0.000000
0.00908500 -0.27335799 4.77392292 0.000000
0.01435600 -0.27101800 4.78161907 0.000000
0.03151800 -0.28909501 4.79850483 0.000000
0.02274500 -0.29136801 4.78769922 0.000000
0.04225100 -0.29219699 4.81055117 0.000000
-0.01202600 -0.29362699 4.74621677 0.000000
0.02480400 -0.29401201 4.78959894 0.000000
0.02610300 -0.27650800 4.79463100 0.000000
0.13461199 -0.34226701 4.84035778 0.000000
0.14003301 -0.35330299 4.84041691 0.000000
0.10768600 -0.36449200 4.84149408 0.000000
0.12501900 -0.35680100 4.84290886 0.000000
0.12195000 -0.31926900 4.84157991 0.000000
0.11239900 -0.28681999 4.84279823 0.000000
0.35362399 -0.25259301 4.71025801 0.000000
0.34651199 -0.25792900 4.72192717 0.000000
0.14352500 -0.29488599 4.83899498 0.000000
0.12888899 -0.28457800 4.84072924 0.000000
0.41240400 -0.15592401 4.74438715 0.000000
0.14128700 -0.18720300 4.86252880 0.000000
0.39312300 -0.17757601 4.70751286 0.000000
0.12532701 -0.17167901 4.86803579 0.000000
0.14105500 -0.19260301 4.86020899 0.000000
0.46084601 -0.09281700 4.78513098 0.000000
0.46684799 -0.07782100 4.78233099 0.000000
0.13486400 -0.04053400 4.92792797 0.000000
0.47637999 -0.00746700 4.79668617 0.000000
0.48248601 0.02048900 4.80973101 0.000000
0.11534700 0.03017800 4.93010807 0.000000
0.07382200 0.19385900 4.94846582 0.000000
0.51179099 0.13921100 4.86314917 0.000000
0.46836799 -0.08176800 4.77012491 0.000000
0.47152701 -0.06383400 4.76751184 0.000000
0.13490400 -0.06783200 4.92728615 0.000000
0.47309899 -0.05766800 4.75836706 0.000000
0.09526700 -0.05504200 4.91880894 0.000000
0.48716801 0.01231200 4.77494192 0.000000
0.09276400 0.04129700 4.92862892 0.000000
0.08485200 0.04769600 4.92849684 0.000000
0.48529100 0.01596400 4.79989815 0.000000
0.10381400 0.00892700 4.92540884 0.000000
0.10791300 0.03765100 4.93062305 0.000000
0.54356301 0.17370801 4.83030415 0.000000
-0.32167301 0.01370400 4.38086891 0.000000
-0.02674600 0.16191500 4.31940603 0.000000
-0.33529001 0.12691700 4.43458700 0.000000
-0.03024700 0.16809100 4.31169701 0.000000
-0.34005001 0.12446000 4.42479277 0.000000
-0.03046800 0.18254900 4.34016609 0.000000
-0.34438601 0.15395901 4.44074202 0.000000
-0.03146700 0.20833500 4.36199284 0.000000
-0.35417500 0.18264200 4.44889498 0.000000
-0.35258499 0.19787499 4.46593809 0.000000
-0.35851699 0.19254100 4.45057487 0.000000
-0.36060601 0.21781000 4.46877813 0.000000
-0.03290100 0.27542299 4.41065598 0.000000
-0.00089400 0.38745901 4.49954700 0.000000
0.00278000 0.40270999 4.50227594 0.000000
-0.03405700 0.36072901 4.52241707 0.000000
-0.02018700 0.37646699 4.51878023 0.000000
0.49570501 0.21346100 4.76718616 0.000000
0.49437201 0.23606201 4.74422121 0.000000
0.52775598 0.22208001 4.75633001 0.000000
-0.03112700 0.20536700 4.87388086 0.000000
0.52704000 0.20293400 4.77838707 0.000000
0.52082902 0.23335300 4.74065304 0.000000
0.52379900 0.24813101 4.73684692 0.000000
0.45984200 0.21978600 4.79057407 0.000000
0.45885199 0.23439100 4.77584696 0.000000
0.00308900 0.21373600 4.82423401 0.000000
-0.01392900 0.21077700 4.83261824 0.000000
-0.00865400 0.20952900 4.83527088 0.000000
-0.02440500 0.22086100 4.83112192 0.000000
-0.03966600 0.23713399 4.83816004 0.000000
0.54131800 0.19299500 4.79736710 0.000000
-0.00631100 0.20110300 4.90837908 0.000000
0.45345199 0.22201300 4.80535698 0.000000
0.45256600 0.23365000 4.77326488 0.000000
0.45255601 0.22468100 4.79227495 0.000000
0.01303700 0.23619699 4.82005119 0.000000
-0.29107201 -0.14588501 3.66810608 0.000000
-0.28358099 -0.14155000 3.67686796 0.000000
-0.34042099 -0.16829000 3.68412209 0.000000
-0.33155799 -0.16308799 3.69131398 0.000000
-0.15612100 -0.37782100 3.61130309 0.000000
-0.37532401 -0.36097601 3.61912608 0.000000
-0.15538301 -0.36652899 3.63073611 0.000000
-0.20891801 -0.15174501 3.68159604 0.000000
-0.22215000 -0.14756000 3.66905689 0.000000
-0.21286400 -0.44598800 3.61247993 0.000000
-0.32036600 -0.43990600 3.60783601 0.000000
-0.21368700 -0.45142800 3.62677407 0.000000
-0.32052901 -0.45236799 3.63477993 0.000000
-0.16900299 -0.17650200 3.67102194 0.000000
-0.16460600 -0.18154401 3.68127608 0.000000
-0.34491500 -0.16899000 3.67483091 0.000000
-0.22759899 -0.31223899 3.45656204 0.000000
-0.32558501 -0.30312201 3.51377201 0.000000
-0.23187900 -0.32107800 3.46177197 0.000000
-0.33728701 -0.28437200 3.52361107 0.000000
-0.22691800 -0.18946500 3.41414595 0.000000
-0.29830101 -0.18039200 3.42493105 0.000000
-0.29025000 -0.16800199 3.46656799 0.000000
-0.29798600 -0.16900299 3.47019601 0.000000
-0.29666299 -0.17580700 3.43978906 0.000000
-0.20858900 -0.16231100 3.61343908 0.000000
-0.31849900 -0.16416299 3.57304192 0.000000
-0.30777499 -0.16440600 3.54025292 0.000000
-0.21111099 -0.18260100 3.44294810 0.000000
-0.23088101 -0.17171200 3.41934204 0.000000
-0.25405899 -0.16939799 3.40977812 0.000000
-0.25461900 -0.18284699 3.40181708 0.000000
-0.30663800 -0.14950800 3.46359301 0.000000
-0.30903599 -0.15260500 3.47712898 0.000000
-0.31006199 -0.15800700 3.50790405 0.000000
-0.20167001 -0.17787300 3.54803801 0.000000
-0.20356500 -0.18124001 3.59095001 0.000000
-0.20656900 -0.17426801 3.61699796 0.000000
-0.21057500 -0.16225600 3.62812591 0.000000
-0.32504800 -0.19767800 3.61428595 0.000000
-0.31745401 -0.17356600 3.61559510 0.000000
-0.21071599 -0.16126999 3.62557697 0.000000
-0.20627999 -0.16638000 3.55117989 0.000000
-0.30737400 -0.17260900 3.49732804 0.000000
-0.29457799 -0.18612000 3.42051101 0.000000
-0.20316100 -0.15857100 3.45501494 0.000000
-0.22107001 -0.15658800 3.40477109 0.000000
-0.30668899 -0.15926600 3.52046108 0.000000
-0.31213999 -0.16231200 3.55824399 0.000000
-0.30621201 -0.00461600 3.90108705 0.000000
-0.30649200 -0.00322800 3.90533805 0.000000
-0.24536400 -0.11994200 3.71673012 0.000000
-0.26314500 -0.12553801 3.70413303 0.000000
-0.26882800 -0.12331800 3.70922494 0.000000
-0.04213400 0.39617899 4.52989912 0.000000
-0.29591900 0.37037301 4.61906195 0.000000
-0.05945200 0.23909600 4.46599579 0.000000
-0.30152500 0.24081200 4.49742508 0.000000
-0.06115800 0.19915099 4.44358110 0.000000
-0.05552000 0.13109000 4.39156485 0.000000
-0.26654100 0.12528700 4.45026112 0.000000
-0.04832300 0.15681000 4.40290499 0.000000
-0.28138000 0.16258200 4.46338177 0.000000
-0.03570600 0.30404499 4.48930216 0.000000
-0.29416400 0.28959501 4.54263020 0.000000
-0.03085100 0.34707001 4.51325178 0.000000
-0.30520800 0.30336699 4.57495689 0.000000
-0.21914500 0.02836000 4.40880203 0.000000
-0.21970500 0.03510300 4.41083193 0.000000
-0.05081300 0.06594800 4.34243107 0.000000
-0.22735800 0.03236300 4.42025518 0.000000
0.42377099 -0.11906700 4.77472401 0.000000
0.16592801 -0.10095700 4.88046789 0.000000
0.17082199 -0.07712800 4.89037085 0.000000
0.35959899 -0.04136500 4.70390797 0.000000
0.09673700 -0.06417900 4.79711390 0.000000
0.36433899 -0.04223100 4.68437815 0.000000
0.07258000 -0.05750200 4.81391096 0.000000
0.36148000 -0.04626200 4.74220181 0.000000
0.10931000 -0.05356800 4.80485487 0.000000
0.36889201 -0.03592700 4.74203682 0.000000
0.13227101 -0.04911300 4.81785297 0.000000
0.16365300 -0.05814900 4.86533785 0.000000
0.16785800 -0.06653100 4.88230181 0.000000
0.15491800 -0.08955200 4.91917992 0.000000
0.45248100 -0.10276900 4.78587723 0.000000
0.46712700 -0.02345800 4.71374178 0.000000
0.08362200 -0.04935500 4.91467094 0.000000
0.46711600 -0.06564500 4.73119593 0.000000
0.08526800 -0.05927000 4.91277981 0.000000
0.46500701 0.01480400 4.81581879 0.000000
0.13128500 0.03574600 4.92167997 0.000000
0.46225300 0.01610200 4.81596613 0.000000
0.14242800 0.01361800 4.90650606 0.000000
-0.12401000 -0.38993400 3.71678710 0.000000
-0.39337400 -0.38367900 3.71463490 0.000000
-0.11455000 -0.39447501 3.71351194 0.000000
-0.18324500 -0.46776599 3.72136092 0.000000
-0.17117800 -0.45967999 3.75098610 0.000000
-0.36014900 -0.45339900 3.74584293 0.000000
-0.15295200 -0.40629199 3.71750903 0.000000
-0.14668401 -0.43193901 3.71215010 0.000000
-0.23093601 -0.15516300 3.57075191 0.000000
-0.22788000 -0.15369800 3.58995295 0.000000
-0.29447201 -0.15200201 3.60439706 0.000000
-0.31802201 -0.16430800 3.57054996 0.000000
-0.21153399 -0.15841299 3.57454896 0.000000
-0.18323500 -0.19445300 3.58277512 0.000000
-0.34240699 -0.19091100 3.59366012 0.000000
-0.17121799 -0.21780200 3.58279395 0.000000
-0.15466601 -0.30011299 3.59838796 0.000000
-0.37171999 -0.30478600 3.60004592 0.000000
-0.15550600 -0.29115301 3.59592199 0.000000
-0.36604199 -0.29041201 3.58370090 0.000000
-0.16652800 -0.35013801 3.56239510 0.000000
-0.35065299 -0.19441500 3.60877204 0.000000
-0.18003801 -0.18398100 3.60936189 0.000000
-0.33980000 -0.18043201 3.60775495 0.000000
-0.36903301 -0.31452799 3.58544898 0.000000
-0.15996200 -0.33762601 3.57657099 0.000000
-0.15294600 -0.34505701 3.62691593 0.000000
-0.37451601 -0.35411900 3.63047791 0.000000
-0.15102001 -0.32478100 3.63115191 0.000000
-0.37467599 -0.32183501 3.62742996 0.000000
-0.14637101 -0.26334801 3.64707899 0.000000
-0.37767199 -0.27454299 3.65639591 0.000000
-0.14463200 -0.26523301 3.65831804 0.000000
-0.37814200 -0.25333101 3.65818000 0.000000
-0.15808500 -0.24226800 3.60292912 0.000000
-0.35886800 -0.23705900 3.58637094 0.000000
-0.15933700 -0.26792601 3.58776212 0.000000
-0.36873400 -0.27232200 3.60101295 0.000000
-0.19534500 -0.17953500 3.48812199 0.000000
-0.19380300 -0.19310901 3.50638008 0.000000
-0.32392099 -0.18787600 3.50187612 0.000000
-0.17696400 -0.23680300 3.55371308 0.000000
-0.34712401 -0.22559001 3.56663299 0.000000
-0.17180200 -0.22352999 3.57639289 0.000000
-0.35381001 -0.23050100 3.57904506 0.000000
-0.31008601 -0.33283001 3.50312901 0.000000
-0.29799101 -0.34609100 3.49371195 0.000000
-0.22069900 -0.38754100 3.52548695 0.000000
-0.32597199 -0.41650301 3.56631589 0.000000
-0.33023900 -0.40720299 3.55442095 0.000000
-0.37166300 -0.34893599 3.58167100 0.000000
-0.16053700 -0.34009400 3.57476306 0.000000
-0.16374201 -0.34202200 3.56641698 0.000000
-0.17153600 -0.32108000 3.55320597 0.000000
-0.17678000 -0.28898701 3.53948808 0.000000
-0.32761201 -0.28228301 3.50295305 0.000000
-0.28957000 -0.30009800 3.43338299 0.000000
-0.27454001 -0.31194201 3.43485188 0.000000
-0.31338501 -0.34581199 3.51457691 0.000000
-0.28438801 -0.33186701 3.46574306 0.000000
-0.22318301 -0.32493600 3.48127294 0.000000
-0.30765200 -0.32944101 3.49626493 0.000000
-0.23476700 -0.32747799 3.46632409 0.000000
-0.29758501 -0.32326701 3.47214699 0.000000
-0.29689699 -0.38379601 3.52084398 0.000000
-0.33313400 -0.38736999 3.53702688 0.000000
-0.32961699 -0.37466699 3.53149104 0.000000
-0.22385199 -0.41648301 3.55418205 0.000000
-0.21673600 -0.40011001 3.53594804 0.000000
-0.22957800 -0.37368599 3.51386905 0.000000
-0.16921100 -0.35185900 3.56307793 0.000000
-0.30353299 -0.27943301 3.43050289 0.000000
-0.23461600 -0.29697800 3.42556810 0.000000
-0.20356899 -0.16152500 3.48404908 0.000000
-0.19863001 -0.17603201 3.49782705 0.000000
-0.20982499 -0.16504601 3.53944802 0.000000
-0.20619600 -0.16866900 3.52457500 0.000000
-0.30707699 -0.15769400 3.50378108 0.000000
-0.33304599 -0.21484800 3.52826905 0.000000
-0.32571301 -0.19288599 3.51229000 0.000000
-0.19872800 -0.16501600 3.45052099 0.000000
-0.19414000 -0.17809699 3.46651506 0.000000
-0.20303500 -0.16391601 3.47903490 0.000000
-0.30901301 -0.15222900 3.46224904 0.000000
-0.26341999 -0.51947600 3.66057897 0.000000
-0.27143499 -0.50992298 3.64505696 0.000000
-0.24914400 -0.51361698 3.66352510 0.000000
-0.28807399 -0.51263398 3.64748001 0.000000
-0.23533100 -0.38765499 3.52164412 0.000000
-0.24637000 -0.15239000 3.51785493 0.000000
-0.27559099 -0.15178999 3.51002908 0.000000
-0.24823600 -0.14950900 3.48889709 0.000000
-0.26222801 -0.14954700 3.50515604 0.000000
-0.27349600 -0.24792901 3.37154388 0.000000
-0.27405599 -0.14612600 3.45942903 0.000000
-0.23930199 -0.14650500 3.44627595 0.000000
-0.26804301 -0.14569201 3.45120907 0.000000
-0.23865300 -0.28337801 3.40545106 0.000000
-0.24419400 -0.46026200 3.60201502 0.000000
-0.29013500 -0.46092400 3.60092092 0.000000
-0.24084800 -0.46651000 3.61092496 0.000000
-0.24490000 -0.32739300 3.45679498 0.000000
-0.24642600 -0.18220900 3.42234397 0.000000
-0.24270999 -0.17465200 3.43328500 0.000000
-0.25633001 -0.18416201 3.41623497 0.000000
-0.24128000 -0.34472799 3.48051691 0.000000
-0.27085701 -0.31013301 3.43157601 0.000000
-0.28882200 -0.36118701 3.49925399 0.000000
-0.24083599 -0.42248100 3.55877399 0.000000
-0.30182299 -0.40633899 3.54327297 0.000000
-0.25456899 -0.37356499 3.50432611 0.000000
-0.24472700 -0.28670800 3.40524912 0.000000
-0.29073399 -0.16152000 3.39559293 0.000000
-0.16472299 -0.40114099 3.61988497 0.000000
-0.36516899 -0.39831099 3.62600398 0.000000
-0.17252000 -0.41303700 3.61425996 0.000000
-0.36434001 -0.40004599 3.61302090 0.000000
-0.19282700 -0.18238699 3.43890810 0.000000
-0.19190501 -0.19560701 3.43023610 0.000000
-0.32326499 -0.18691100 3.44876194 0.000000
-0.18981600 -0.20109800 3.45526409 0.000000
-0.19083899 -0.21341699 3.45094895 0.000000
-0.19297101 -0.22177500 3.43941402 0.000000
-0.21143299 -0.18675800 3.39108205 0.000000
-0.25458401 0.01258400 4.41908789 0.000000
-0.25456801 0.04836000 4.43366623 0.000000
-0.01874200 0.34148300 4.49683714 0.000000
-0.31330499 0.31617600 4.59683895 0.000000
-0.02572700 0.30941501 4.47835588 0.000000
-0.01635800 0.33946601 4.49138212 0.000000
-0.32746100 0.29462799 4.56835318 0.000000
-0.02855500 0.17835300 4.38090611 0.000000
-0.03110700 0.15332399 4.36826992 0.000000
-0.30720499 0.14965899 4.46339893 0.000000
-0.26717600 0.00242000 4.41112995 0.000000
-0.03723100 0.21452001 4.42982006 0.000000
-0.31385100 0.22663000 4.49463987 0.000000
-0.32357299 0.23093000 4.49792910 0.000000
-0.03583600 0.09452700 4.34250689 0.000000
-0.25812799 0.07550800 4.44135284 0.000000
-0.04109400 0.11254900 4.36162090 0.000000
-0.27668801 0.08644000 4.44406509 0.000000
-0.21134999 -0.37175900 3.87644792 0.000000
-0.20609599 -0.37773600 3.84881806 0.000000
-0.20999600 -0.35050899 3.88272095 0.000000
-0.28427500 -0.38504300 3.86294293 0.000000
-0.28953800 -0.35900599 3.88334298 0.000000
-0.28767300 -0.38672799 3.84990096 0.000000
-0.29232100 -0.37706801 3.84902096 0.000000
-0.21342599 -0.40180299 3.85939193 0.000000
-0.21611901 -0.40922099 3.86213708 0.000000
-0.20731300 -0.39206600 3.84320402 0.000000
-0.21211401 -0.39679399 3.86000991 0.000000
-0.29145101 -0.39524299 3.82565308 0.000000
-0.27290699 -0.40767899 3.86455107 0.000000
-0.27776399 -0.40722701 3.84991407 0.000000
-0.06857400 -0.48915100 3.79090810 0.000000
-0.33215499 -0.45730200 3.71281004 0.000000
-0.31667501 -0.45669699 3.71775103 0.000000
-0.16130000 -0.40700299 3.67965388 0.000000
-0.47376800 -0.47685599 3.77790093 0.000000
-0.34132200 -0.39261901 3.54383612 0.000000
-0.35935700 -0.39282101 3.56050491 0.000000
-0.36319000 -0.39231101 3.57179904 0.000000
-0.33109099 -0.35002801 3.53608298 0.000000
-0.17104501 -0.38531700 3.69740510 0.000000
-0.35918301 -0.38860101 3.70586610 0.000000
-0.16588600 -0.40339899 3.69151497 0.000000
-0.36461100 -0.38135600 3.68419409 0.000000
-0.16153599 -0.35834801 3.67372108 0.000000
-0.36351100 -0.33791101 3.67772102 0.000000
-0.36006001 -0.35302699 3.69412589 0.000000
0.22015700 -0.21998800 4.70537281 0.000000
0.24337199 -0.23311800 4.72530890 0.000000
0.23208800 -0.20673800 4.70595312 0.000000
0.23249900 -0.22381300 4.71444702 0.000000
0.16071600 -0.23865600 4.73142004 0.000000
0.16822700 -0.26374501 4.72691679 0.000000
0.23559199 -0.26152700 4.73000479 0.000000
0.25388801 -0.23503600 4.73138189 0.000000
0.22121701 -0.26948199 4.72541904 0.000000
0.18093100 -0.29139301 4.75039291 0.000000
0.17583300 -0.26461899 4.74541283 0.000000
0.39392301 -0.03618700 4.77892685 0.000000
0.14960700 -0.03450000 4.84409809 0.000000
0.14398000 -0.02004900 4.84940386 0.000000
0.39535001 -0.05906200 4.78057384 0.000000
0.15752500 -0.03445400 4.86569405 0.000000
0.43528900 0.07910500 4.81599188 0.000000
0.11005000 0.10619800 4.86878490 0.000000
0.43687999 0.13769899 4.81523800 0.000000
0.44057900 0.12893400 4.82612705 0.000000
0.09089900 0.14834200 4.85692120 0.000000
0.34255800 -0.09005800 4.74635220 0.000000
0.14493600 -0.11101200 4.79743385 0.000000
0.14933300 -0.10998600 4.80419922 0.000000
0.33318001 -0.09252600 4.73752213 0.000000
0.13839900 -0.10461000 4.79272509 0.000000
0.12538800 -0.11869400 4.77306223 0.000000
0.45756000 0.19637901 4.83825588 0.000000
0.39279401 -0.05988000 4.77897406 0.000000
0.37485901 -0.06092600 4.76681614 0.000000
0.14975800 -0.04889700 4.82993889 0.000000
0.18669400 -0.27514699 4.71418524 0.000000
-0.19207600 -0.20198201 3.42949605 0.000000
-0.31202701 -0.29177099 3.47158408 0.000000
-0.29603800 -0.27051899 3.40503001 0.000000
-0.31103101 -0.28344899 3.45862603 0.000000
-0.30180800 -0.28902501 3.44074798 0.000000
-0.19593100 -0.43721899 3.63259602 0.000000
-0.33380800 -0.43976101 3.63888311 0.000000
-0.34621599 -0.42424399 3.63335395 0.000000
-0.18358800 -0.42273700 3.61197710 0.000000
-0.34342501 -0.42222899 3.60952997 0.000000
-0.35749400 -0.40105999 3.56792402 0.000000
-0.35281599 -0.39861801 3.55822706 0.000000
-0.36436599 -0.37036100 3.55967593 0.000000
0.47776201 -0.01021500 4.74326420 0.000000
0.47671801 -0.03594800 4.73681021 0.000000
0.07138900 -0.02505900 4.90640402 0.000000
0.48120201 0.00710500 4.74442816 0.000000
0.47760499 0.00759200 4.73133707 0.000000
0.07001600 -0.02258900 4.90564585 0.000000
0.54312998 0.16881099 4.81573915 0.000000
0.02934300 0.14460801 4.92986679 0.000000
0.03136100 0.14529400 4.93168306 0.000000
0.53252798 0.13116001 4.81641006 0.000000
0.05446200 0.13856401 4.94416380 0.000000
0.41355801 0.05008000 4.74835920 0.000000
0.41713801 0.03708500 4.73275280 0.000000
0.08125600 0.01731100 4.83779097 0.000000
0.41388500 0.02412200 4.71872997 0.000000
0.07211500 -0.01142000 4.83248901 0.000000
0.07754800 0.00657600 4.83646822 0.000000
0.39197999 0.00177400 4.76352310 0.000000
0.10921700 0.01813500 4.83972311 0.000000
0.11319700 -0.00509900 4.83206081 0.000000
0.40776199 0.03773300 4.75045204 0.000000
0.09473400 0.03757700 4.84270096 0.000000
0.09392100 0.03006000 4.83993721 0.000000
0.45434299 0.19979200 4.82029200 0.000000
0.04954900 0.21075501 4.84999800 0.000000
0.44284800 0.16335000 4.80915022 0.000000
0.06225400 0.16403100 4.85178089 0.000000
0.07484900 0.17514700 4.85566092 0.000000
0.52560902 0.18691300 4.77891922 0.000000
0.00933000 0.18772100 4.91786718 0.000000
0.52888101 0.15853500 4.78847504 0.000000
0.01928200 0.15464801 4.91420412 0.000000
0.01954500 0.16611101 4.92208481 0.000000
0.44067699 -0.01312400 4.70238304 0.000000
0.05778700 -0.02717300 4.87534618 0.000000
0.05889900 -0.03480100 4.87835121 0.000000
0.46000701 0.01738800 4.72131920 0.000000
0.47098699 0.00158400 4.72408819 0.000000
0.06043600 -0.00981500 4.89879179 0.000000
0.43498999 -0.04341000 4.79845715 0.000000
0.15369800 -0.01969600 4.90229893 0.000000
0.43187800 -0.00698100 4.79920006 0.000000
0.14790700 -0.00432300 4.89487219 0.000000
0.14387400 0.00650200 4.87134600 0.000000
0.46865600 0.14400201 4.85633707 0.000000
0.10835800 0.18228599 4.90201998 0.000000
0.11236500 0.16036800 4.90119886 0.000000
0.45562401 0.14002401 4.84377623 0.000000
0.11349300 0.14622800 4.89370012 0.000000
0.10125400 0.18382700 4.88004589 0.000000
0.41777200 0.01727800 4.71479177 0.000000
0.43956900 0.02694200 4.72058010 0.000000
0.06501900 -0.00639900 4.84127808 0.000000
0.41956201 0.01009100 4.71155691 0.000000
0.42996699 0.00536800 4.70815516 0.000000
0.05819500 -0.02201300 4.85560894 0.000000
0.50127798 0.20205501 4.77119017 0.000000
0.51249498 0.19067299 4.77518511 0.000000
0.50619900 0.09989200 4.84411192 0.000000
0.10362200 0.12736900 4.94018888 0.000000
0.11339000 0.11722900 4.93415785 0.000000
0.51531702 0.13191900 4.85746288 0.000000
0.08542500 0.15631901 4.95096588 0.000000
0.47182000 -0.03302800 4.79072714 0.000000
0.13150001 0.00121600 4.92578983 0.000000
0.46219000 -0.06230400 4.79757977 0.000000
0.13876700 -0.02218300 4.92600298 0.000000
0.53328800 0.13564600 4.82368994 0.000000
0.06660400 0.16836900 4.95255423 0.000000
0.51510602 0.09858900 4.82943201 0.000000
0.52763098 0.13116500 4.84559298 0.000000
0.07862300 0.15867700 4.95244598 0.000000
0.47936401 -0.03052900 4.75559998 0.000000
0.47770199 -0.04067000 4.75411797 0.000000
0.10808600 -0.03538300 4.92449713 0.000000
0.47910401 -0.02763800 4.76952124 0.000000
0.47968799 -0.01247300 4.78168106 0.000000
0.10053900 0.00472900 4.92431879 0.000000
0.48321900 0.09227500 4.84706402 0.000000
0.49868599 0.11758800 4.85953379 0.000000
0.11676600 0.13065800 4.91795778 0.000000
0.47439799 0.12917200 4.85721588 0.000000
0.48649901 0.14698499 4.86609888 0.000000
0.11284000 0.15894300 4.91590214 0.000000
0.45082399 -0.05105400 4.80044317 0.000000
0.45536301 -0.04350000 4.80146503 0.000000
0.14772999 -0.01563100 4.91820383 0.000000
0.04192600 0.20774700 4.84806299 0.000000
0.03691300 0.20635100 4.84757185 0.000000
0.39335701 -0.01130100 4.77308512 0.000000
0.14923200 -0.01700400 4.86229277 0.000000
0.14369400 -0.00498800 4.86096621 0.000000
0.40196401 0.02158800 4.77260494 0.000000
0.12267300 0.02122100 4.84672403 0.000000
0.12814701 0.00556200 4.84206390 0.000000
0.44824800 0.18139300 4.82120514 0.000000
0.09532600 0.19510300 4.87455702 0.000000
0.45292699 0.16578899 4.84407282 0.000000
0.10148800 0.17146300 4.87405920 0.000000
-0.07277500 0.16110300 4.25096893 0.000000
-0.06912800 0.15988199 4.25174999 0.000000
-0.33048499 0.08932300 4.34483194 0.000000
-0.07158200 0.13935700 4.22992802 0.000000
-0.32459500 0.06672800 4.33099079 0.000000
-0.32873300 0.06500900 4.33884192 0.000000
-0.12187100 0.12566400 4.27523804 0.000000
-0.25009000 0.11710600 4.33888817 0.000000
-0.12100700 0.10385700 4.28098011 0.000000
-0.23663500 0.08981000 4.32550383 0.000000
-0.24542300 0.12217300 4.34575701 0.000000
-0.08936800 0.07680400 4.34256077 0.000000
-0.21009400 0.03403500 4.39298916 0.000000
-0.21790799 0.08110600 4.40706491 0.000000
-0.09088800 0.06948400 4.33494902 0.000000
-0.20500501 0.03775700 4.37091589 0.000000
-0.20713399 0.03032600 4.38241577 0.000000
-0.01680600 0.11240500 4.28425217 0.000000
-0.31654200 0.04840900 4.40997601 0.000000
-0.01654100 0.09507100 4.29011488 0.000000
-0.29841501 0.01982100 4.40896988 0.000000
-0.30307299 0.04181500 4.41668606 0.000000
-0.09551100 0.15194000 4.25313187 0.000000
-0.30766800 0.11157800 4.33417082 0.000000
-0.08222600 0.14998201 4.24138308 0.000000
-0.30516499 0.07748800 4.31757021 0.000000
-0.30106801 0.09002000 4.32289124 0.000000
-0.22993900 0.02147800 4.41905785 0.000000
-0.22489700 0.00819400 4.41292381 0.000000
-0.11022500 0.09544800 4.32708597 0.000000
-0.22013301 0.10205200 4.38174915 0.000000
-0.21489500 0.08595300 4.37509394 0.000000
-0.21951400 0.10322000 4.39318991 0.000000
-0.21310601 0.08163000 4.38604593 0.000000
-0.04466400 0.15150900 4.25894690 0.000000
-0.03947600 0.14585200 4.26049900 0.000000
-0.33674499 0.08362900 4.38903713 0.000000
-0.33402601 0.06052800 4.35396385 0.000000
-0.33267799 0.05183500 4.37079477 0.000000
-0.25170600 0.07699800 4.30493402 0.000000
-0.27212501 0.00096600 4.40852785 0.000000
-0.21757500 0.06980700 4.32814121 0.000000
-0.02142800 0.12746701 4.27650309 0.000000
-0.32668501 0.06787200 4.40653181 0.000000
-0.02506700 0.12032900 4.25342321 0.000000
-0.32175499 0.04238800 4.39720583 0.000000
-0.33033800 0.05476800 4.39004803 0.000000
-0.21301600 0.01765900 4.39680386 0.000000
-0.04305100 0.37367001 4.52670288 0.000000
-0.28054100 0.32237300 4.56668377 0.000000
-0.04367000 0.38605899 4.52890491 0.000000
0.00724800 0.41357300 4.49864388 0.000000
0.00732500 0.40824801 4.48533821 0.000000
-0.07280400 0.35922101 4.52035189 0.000000
-0.06308400 0.34918401 4.52077484 0.000000
-0.27774999 0.33587801 4.56008101 0.000000
-0.07234400 0.37906000 4.52219200 0.000000
-0.27987599 0.35834900 4.57173586 0.000000
-0.01234100 0.37717301 4.51161003 0.000000
-0.30647701 0.32215500 4.60330582 0.000000
-0.32839501 0.33816299 4.61955023 0.000000
-0.35839599 0.33263800 4.59503508 0.000000
0.48631901 0.01095000 4.76031685 0.000000
0.49583599 0.04532900 4.77207422 0.000000
0.07919900 0.02931200 4.92333078 0.000000
0.07510600 0.02262900 4.91889715 0.000000
0.49814099 0.06029500 4.76723623 0.000000
0.06031400 0.02566900 4.91005278 0.000000
0.45159999 0.14264999 4.77114582 0.000000
0.44584301 0.13563700 4.77339983 0.000000
0.05492800 0.13755900 4.85208178 0.000000
0.45465800 0.14909001 4.77129412 0.000000
0.04675600 0.11562500 4.85830498 0.000000
0.05065200 0.15258899 4.85198593 0.000000
0.42480800 0.08629200 4.77979708 0.000000
0.42044300 0.07221900 4.77691698 0.000000
0.10599700 0.04422400 4.84729290 0.000000
0.42264199 0.07324900 4.76057482 0.000000
0.42236900 0.07397900 4.76393318 0.000000
0.07518800 0.09618500 4.85012484 0.000000
0.51430798 0.12984000 4.77653408 0.000000
0.50211102 0.13608100 4.76644707 0.000000
0.02934700 0.12896501 4.91452599 0.000000
0.50017703 0.09781600 4.76571083 0.000000
0.51324499 0.11853500 4.77568913 0.000000
0.03484100 0.10420800 4.89810705 0.000000
0.04365300 0.08489000 4.90851116 0.000000
0.42862499 0.01232600 4.80074596 0.000000
0.44407201 -0.00301900 4.80639410 0.000000
0.13357900 0.04443700 4.89288378 0.000000
0.14097901 0.01935600 4.90412092 0.000000
0.44493100 0.03108600 4.81418419 0.000000
0.12559301 0.07388200 4.88444090 0.000000
0.12814100 0.06788800 4.90059710 0.000000
0.45352599 0.09144600 4.74634790 0.000000
0.45895600 0.09467900 4.74813890 0.000000
0.04720200 0.07734900 4.86775780 0.000000
0.05467400 0.06212700 4.85500622 0.000000
0.47362000 0.09355000 4.74954796 0.000000
0.45764601 0.06112500 4.73560715 0.000000
0.05091500 0.05259800 4.86896086 0.000000
0.04784600 0.04320500 4.88001013 0.000000
0.48706701 0.04684500 4.82342720 0.000000
0.11547500 0.07358900 4.93162680 0.000000
0.49704799 0.06425800 4.82649088 0.000000
0.10764800 0.09391300 4.93575716 0.000000
0.51860100 0.10239800 4.82120180 0.000000
0.51556599 0.09708300 4.82328415 0.000000
0.06881800 0.10185400 4.93808222 0.000000
0.49906701 0.05583600 4.80760002 0.000000
0.49702400 0.05219400 4.81052780 0.000000
0.08791800 0.08148600 4.93549395 0.000000
0.46653599 0.07914600 4.83887720 0.000000
0.47854200 0.08022600 4.84194803 0.000000
0.11835800 0.11730500 4.91991377 0.000000
0.47875100 0.03568800 4.82581997 0.000000
0.12404600 0.07939400 4.92037296 0.000000
0.41712400 0.02606500 4.78949213 0.000000
0.42725500 0.04657100 4.80484676 0.000000
0.12169900 0.07183400 4.87067080 0.000000
0.12883601 0.04568500 4.86910486 0.000000
0.43063101 0.09053800 4.80227900 0.000000
0.11526700 0.04713600 4.85267401 0.000000
0.11727700 0.05934600 4.86010599 0.000000
0.49445099 0.25389299 4.73665810 0.000000
0.45687899 0.26025200 4.75257492 0.000000
0.45844200 0.23839200 4.76546097 0.000000
-0.01178200 0.23534800 4.81508112 0.000000
-0.23732300 -0.50212300 3.69203401 0.000000
-0.28773299 -0.50695699 3.68590593 0.000000
-0.26386100 -0.52383101 3.69244099 0.000000
-0.27621901 -0.50861102 3.69604492 0.000000
-0.21815100 -0.47302800 3.70839095 0.000000
-0.30997899 -0.46830800 3.70875502 0.000000
-0.29114100 -0.49554300 3.69557691 0.000000
-0.11567700 0.27188700 4.41029692 0.000000
-0.30963200 0.28689101 4.43002987 0.000000
-0.11120600 0.29462501 4.43456411 0.000000
-0.30708599 0.28574401 4.42960310 0.000000
-0.11750100 0.26300299 4.43379211 0.000000
-0.29016599 0.29233900 4.45626116 0.000000
-0.11354800 0.26067001 4.44621515 0.000000
-0.28812599 0.28123200 4.44513702 0.000000
-0.09401700 0.38325599 4.46437407 0.000000
-0.31778401 0.36093000 4.50815105 0.000000
-0.31977400 0.35308400 4.49853802 0.000000
-0.09663400 0.35377800 4.47104597 0.000000
-0.17793900 -0.37327200 3.73789001 0.000000
-0.16518900 -0.34443301 3.73776698 0.000000
-0.35058099 -0.35278600 3.73799109 0.000000
-0.34198600 -0.37043300 3.73496509 0.000000
-0.18587500 -0.39771301 3.73149705 0.000000
-0.33326101 -0.39071500 3.73009801 0.000000
-0.20842600 -0.45341301 3.72409105 0.000000
-0.29619399 -0.46318400 3.72722006 0.000000
-0.30703399 -0.44170299 3.73265791 0.000000
-0.21943399 -0.47414500 3.71526909 0.000000
-0.28323799 -0.47870001 3.72258592 0.000000
-0.30780599 -0.17106301 3.51487708 0.000000
-0.20628600 -0.15454100 3.46342707 0.000000
-0.22725800 -0.15393800 3.40353298 0.000000
-0.15642101 -0.19896300 3.65857005 0.000000
-0.37159699 -0.20783600 3.67118597 0.000000
-0.36887300 -0.20021100 3.68396902 0.000000
-0.15751000 -0.21489900 3.73463011 0.000000
-0.36619100 -0.23109899 3.76784706 0.000000
-0.16608401 -0.19158800 3.73823690 0.000000
-0.36342600 -0.21963900 3.76471901 0.000000
-0.22881299 -0.13031501 3.71312189 0.000000
-0.22903000 -0.12157400 3.72499204 0.000000
-0.33814800 -0.16565500 3.74142408 0.000000
-0.32444799 -0.14875799 3.73338795 0.000000
-0.14916000 -0.23468000 3.70175695 0.000000
-0.37386000 -0.26080200 3.70896411 0.000000
-0.15054899 -0.23883399 3.70799398 0.000000
-0.21274500 -0.13785300 3.72272706 0.000000
-0.31244799 -0.13458100 3.72956109 0.000000
-0.34705999 -0.18071499 3.72309899 0.000000
-0.17274800 -0.18197601 3.72796512 0.000000
-0.34129000 -0.17146000 3.72863197 0.000000
-0.36605299 -0.22004600 3.71892405 0.000000
-0.16816200 -0.18940000 3.72903109 0.000000
-0.35782301 -0.20041700 3.73474789 0.000000
-0.36913800 -0.31607601 3.69812393 0.000000
-0.22474401 -0.09949400 3.75051689 0.000000
-0.31265101 -0.09848100 3.76401305 0.000000
-0.21960700 -0.09961800 3.75490403 0.000000
-0.30623701 -0.11315600 3.74519110 0.000000
-0.18109500 -0.14524700 3.76716208 0.000000
-0.33837700 -0.16153701 3.74879289 0.000000
-0.19681799 -0.13335600 3.75210190 0.000000
-0.33166200 -0.14633200 3.75170493 0.000000
-0.15418100 -0.22699501 3.74141908 0.000000
-0.36502901 -0.24711099 3.74433804 0.000000
-0.36532301 -0.24921200 3.76539707 0.000000
-0.15238500 -0.24916500 3.73467302 0.000000
-0.36675400 -0.27033100 3.73303509 0.000000
-0.17801000 -0.16386200 3.75272202 0.000000
-0.35627899 -0.18104000 3.77588606 0.000000
-0.18285100 -0.16392700 3.74183011 0.000000
-0.35190800 -0.18024200 3.76514506 0.000000
-0.20908201 -0.10827700 3.75944209 0.000000
-0.31963900 -0.12263300 3.75335789 0.000000
-0.32139200 -0.13606399 3.74466896 0.000000
-0.16082101 -0.19161600 3.76201606 0.000000
-0.15646499 -0.19887300 3.76852703 0.000000
-0.36591899 -0.20293000 3.79718399 0.000000
-0.36777201 -0.22702301 3.78190207 0.000000
-0.37137300 -0.20876500 3.81919694 0.000000
-0.37160501 -0.20268200 3.82665205 0.000000
-0.15567601 -0.14588501 3.83398700 0.000000
-0.15847100 -0.15174100 3.81759596 0.000000
-0.15373100 -0.15538400 3.83085990 0.000000
-0.37969199 -0.15234300 3.88636589 0.000000
-0.37471199 -0.16687000 3.85780001 0.000000
-0.37402600 -0.16175801 3.85661507 0.000000
-0.37443301 -0.17358300 3.85391498 0.000000
-0.37335500 -0.17983700 3.84653091 0.000000
-0.16377901 -0.34958801 3.72658491 0.000000
-0.15594800 -0.32251501 3.71466899 0.000000
-0.35676500 -0.33816299 3.72757196 0.000000
-0.15128900 -0.31411999 3.69947100 0.000000
-0.36141101 -0.33484501 3.71000791 0.000000
0.23867600 -0.15428700 4.57329321 0.000000
0.24150400 -0.15168101 4.57518101 0.000000
0.02986000 -0.19207899 4.69472694 0.000000
0.27948800 -0.12730999 4.59100199 0.000000
0.29190901 -0.12528400 4.59057713 0.000000
0.01498700 -0.19434100 4.71509314 0.000000
0.24597900 -0.13733099 4.64814091 0.000000
0.23137800 -0.15091801 4.64521599 0.000000
0.26146001 -0.13210000 4.67545986 0.000000
0.09861000 -0.18359201 4.70456314 0.000000
0.23303600 -0.17654701 4.68542004 0.000000
0.22431500 -0.18706900 4.68416500 0.000000
0.22207800 -0.18264399 4.67526817 0.000000
0.21718299 -0.18696100 4.67264986 0.000000
0.25090599 -0.14565900 4.67676210 0.000000
0.09882400 -0.20569099 4.68830395 0.000000
0.11775300 -0.18661501 4.71757889 0.000000
0.11355700 -0.17620499 4.72131777 0.000000
0.30548301 -0.20571400 4.73648787 0.000000
0.29957899 -0.21927400 4.73626804 0.000000
0.31344599 -0.18030100 4.73638201 0.000000
0.30787799 -0.16947100 4.73483896 0.000000
0.16875499 -0.25122499 4.79335594 0.000000
0.16680799 -0.23048200 4.80189323 0.000000
0.15638199 -0.18255600 4.78745508 0.000000
0.16693600 -0.22209400 4.81061983 0.000000
0.29096800 -0.22817500 4.73560095 0.000000
0.29227301 -0.24632700 4.73674393 0.000000
0.29471600 -0.20601401 4.73489809 0.000000
0.28940001 -0.23328800 4.73567295 0.000000
0.16902301 -0.23559500 4.76552105 0.000000
0.16607600 -0.21878999 4.75669813 0.000000
0.17369699 -0.26998299 4.79077721 0.000000
0.15662999 -0.19231300 4.76831818 0.000000
0.23524800 -0.14790000 4.59581995 0.000000
0.21432000 -0.16662000 4.63318205 0.000000
0.22093900 -0.16077100 4.60974598 0.000000
0.05764100 -0.19249600 4.69695377 0.000000
0.06944500 -0.19988000 4.69086599 0.000000
0.06038700 -0.20459600 4.68406391 0.000000
0.25375101 -0.13070400 4.61422682 0.000000
0.25489599 -0.12839600 4.62717581 0.000000
0.06507700 -0.18144700 4.70497322 0.000000
0.07780100 -0.17905299 4.70614195 0.000000
0.05344600 -0.17179000 4.71239996 0.000000
0.32392299 -0.17413101 4.57721710 0.000000
0.34575599 -0.15274100 4.60090399 0.000000
0.35267001 -0.16825400 4.60509300 0.000000
0.00806800 -0.23326799 4.76135015 0.000000
0.01456200 -0.22743900 4.77383614 0.000000
0.02790300 -0.22116600 4.79859495 0.000000
0.01529300 -0.20970801 4.77791595 0.000000
0.36686599 -0.17824000 4.61717176 0.000000
0.36746901 -0.15423700 4.62146807 0.000000
0.04868500 -0.19143200 4.83373499 0.000000
0.04554800 -0.19719499 4.82851601 0.000000
0.04276400 -0.21308701 4.82305193 0.000000
0.36292401 -0.23978800 4.70005512 0.000000
0.36373600 -0.23681800 4.70077705 0.000000
0.12261700 -0.25406101 4.84448814 0.000000
0.11315800 -0.25368300 4.84552097 0.000000
0.11119900 -0.21553600 4.85132122 0.000000
0.37691399 -0.20310400 4.70346022 0.000000
0.37127799 -0.21073601 4.71748400 0.000000
0.13104799 -0.21100201 4.85330820 0.000000
0.13892999 -0.22815999 4.84922695 0.000000
0.27506900 -0.15489700 4.71056795 0.000000
0.29008800 -0.14746100 4.71837711 0.000000
0.24165900 -0.18635499 4.70399904 0.000000
0.23833799 -0.18829200 4.70248508 0.000000
0.25407201 -0.15829000 4.69458008 0.000000
0.13302700 -0.18139400 4.73618221 0.000000
0.14094301 -0.20467800 4.72575283 0.000000
0.11231300 -0.16646799 4.72756815 0.000000
0.11071500 -0.16120300 4.73011303 0.000000
0.25619099 -0.20164900 4.72019720 0.000000
0.25984600 -0.18079901 4.71472406 0.000000
0.29981899 -0.15401600 4.73147678 0.000000
0.28823900 -0.16394700 4.72745085 0.000000
0.14849100 -0.18219499 4.75074387 0.000000
0.15594800 -0.21043301 4.74345398 0.000000
0.15756901 -0.22271200 4.73741007 0.000000
-0.19010100 -0.29179001 3.96131611 0.000000
-0.30446300 -0.29475099 3.98462391 0.000000
-0.20836300 -0.31431499 3.95674610 0.000000
-0.27656600 -0.33561701 3.95534801 0.000000
-0.19385700 -0.31784099 4.02695084 0.000000
-0.17521200 -0.28906700 4.00230789 0.000000
-0.26652399 -0.31582001 4.04440403 0.000000
-0.18455800 -0.29636601 3.99232292 0.000000
-0.19866300 -0.31998000 4.01527309 0.000000
-0.26212099 -0.32440200 4.01637983 0.000000
-0.30654800 -0.15868500 3.42104912 0.000000
-0.30586800 -0.15264399 3.43661594 0.000000
-0.37317699 -0.28714201 3.70016694 0.000000
-0.14755701 -0.26629001 3.70406508 0.000000
-0.37233099 -0.27621800 3.70976305 0.000000
-0.15577300 -0.31883800 3.72520304 0.000000
-0.35893199 -0.31955999 3.73511100 0.000000
-0.15032300 -0.26789299 3.71696305 0.000000
-0.15063600 -0.27077800 3.72526598 0.000000
-0.36783099 -0.27583101 3.72573209 0.000000
-0.35819200 -0.31402999 3.74749708 0.000000
-0.20228399 -0.31125399 3.51136494 0.000000
-0.31985301 -0.27326301 3.47628307 0.000000
-0.31460100 -0.25903401 3.43224001 0.000000
-0.36234599 0.32648501 4.57572985 0.000000
-0.02678400 0.32890001 4.43647003 0.000000
-0.35769001 0.32035899 4.57699680 0.000000
-0.23299600 -0.19861500 3.37509203 0.000000
-0.16420101 -0.32449499 3.79264212 0.000000
-0.15246600 -0.27715299 3.75651789 0.000000
-0.15923300 -0.32560399 3.74312210 0.000000
-0.35727501 -0.30015901 3.76821089 0.000000
-0.34742200 -0.31836399 3.79191208 0.000000
-0.34330499 -0.33727100 3.79032993 0.000000
-0.35934800 -0.30116600 3.75830793 0.000000
-0.15258400 -0.27710599 3.76922393 0.000000
-0.14856701 -0.26091701 3.79980898 0.000000
-0.15390100 -0.28212801 3.76767302 0.000000
-0.15088899 -0.26991600 3.79268289 0.000000
-0.16396099 -0.31900099 3.79967809 0.000000
-0.35612500 -0.28924200 3.82907796 0.000000
-0.34866300 -0.31073001 3.80939293 0.000000
-0.34506300 -0.32074201 3.80200601 0.000000
-0.35148799 -0.30326301 3.81288004 0.000000
-0.35846901 -0.28592700 3.81484389 0.000000
0.20339900 -0.18069901 4.57858992 0.000000
0.21872300 -0.16339000 4.58975887 0.000000
