0.32436499 0.05431900 24.51262856 0.000000
0.40876001 0.12690400 24.19355774 0.000000
0.40107000 0.13937300 24.19404221 0.000000
0.32723701 0.10971800 24.50959969 0.000000
0.33337399 0.10604000 24.52046585 0.000000
0.51041698 -0.46952301 24.25030136 0.000000
0.50888097 -0.50538301 24.27685547 0.000000
0.45620200 -0.51045400 24.40549850 0.000000
0.43203199 -0.48996601 24.42361069 0.000000
0.49487299 -0.50735301 24.26289940 0.000000
0.50810403 -0.44119000 24.23401070 0.000000
0.40933701 -0.46921000 24.43299675 0.000000
0.42567199 -0.47376701 24.43683052 0.000000
0.33944601 0.21059100 24.23249054 0.000000
0.33428100 0.19758800 24.46738434 0.000000
0.34194300 0.18342499 24.23521423 0.000000
0.32630801 0.16637400 24.47613144 0.000000
0.35939699 0.20888101 24.28165245 0.000000
0.34518600 0.23150000 24.26884842 0.000000
0.37124699 0.19904500 24.44993019 0.000000
0.43266299 0.23143201 24.24377060 0.000000
0.41613701 0.19039100 24.52776909 0.000000
0.40557900 0.20067200 24.53656769 0.000000
0.40680099 0.22948800 24.19968987 0.000000
0.41587901 0.21227100 24.20376015 0.000000
0.38797200 0.23293699 24.28992271 0.000000
0.41596600 0.22674701 24.47800255 0.000000
0.39135101 0.21595301 24.29038811 0.000000
0.42214999 0.20021699 24.48327827 0.000000
0.43075100 0.23135200 24.23316383 0.000000
0.43797299 0.19673400 24.22725868 0.000000
0.39989099 0.18455499 24.53902054 0.000000
0.35928100 0.18371201 24.27594566 0.000000
0.39262000 0.13751200 24.44966507 0.000000
0.35692900 0.16190501 24.26745415 0.000000
0.37515399 0.13529700 24.44783974 0.000000
0.42527699 0.18482900 24.20592117 0.000000
0.35603401 0.15901101 24.53971291 0.000000
0.36616701 0.13945401 24.54144859 0.000000
0.36009300 0.14062200 24.20818710 0.000000
0.32023701 0.11429100 24.48122025 0.000000
0.36936000 0.16701600 24.19998550 0.000000
0.32333300 0.14509299 24.49395752 0.000000
0.41855001 0.19639400 24.28561020 0.000000
0.43010899 0.15040100 24.49412918 0.000000
0.43511400 0.15345199 24.28945351 0.000000
0.43152499 0.13381501 24.49451256 0.000000
0.34840500 0.15564500 24.24368858 0.000000
0.35932401 0.16850699 24.44970131 0.000000
0.36292300 0.15394600 24.44777298 0.000000
0.35682800 0.13220701 24.25178719 0.000000
0.34194201 0.13339201 24.45427895 0.000000
0.39776301 0.13272600 24.53864288 0.000000
0.40752101 0.11894200 24.53599358 0.000000
0.25005201 -0.75329202 24.10337830 0.000000
0.18431500 -0.74554002 24.17982483 0.000000
0.26429000 -0.73438102 24.09560204 0.000000
0.21427600 -0.76419502 24.06786156 0.000000
0.21023101 -0.77407700 24.07168961 0.000000
0.14995100 -0.77920598 24.10666275 0.000000
0.14980400 -0.77419800 24.11022568 0.000000
0.27536699 -0.73322099 24.07262039 0.000000
0.27900201 -0.67970598 24.07508278 0.000000
0.16483700 -0.75141102 24.18669510 0.000000
0.14846900 -0.74778098 24.19241142 0.000000
0.27978599 -0.71899700 24.06493187 0.000000
0.28063300 -0.73042798 24.05922890 0.000000
0.14179701 -0.73134297 24.19788170 0.000000
0.14029901 -0.73512900 24.19717979 0.000000
0.25950000 -0.77207398 24.06712341 0.000000
0.14239800 -0.77954203 24.17201805 0.000000
0.14618200 -0.78140801 24.16519165 0.000000
0.17626899 -0.74893099 24.18038177 0.000000
0.22110000 -0.76147902 24.06838226 0.000000
0.14657500 -0.76578301 24.12819862 0.000000
0.22863200 -0.73906600 24.02090836 0.000000
0.24656899 -0.72627097 24.02906990 0.000000
0.26978800 -0.71042502 24.03830338 0.000000
0.27183399 -0.69002801 24.03862190 0.000000
0.11919900 -0.70118999 24.18848419 0.000000
0.26008999 -0.66619402 24.05280685 0.000000
0.26375300 -0.65325999 24.06046867 0.000000
0.14161301 -0.64210802 24.21007919 0.000000
0.28583601 -0.74923301 24.03870010 0.000000
0.28036100 -0.76442701 24.05506706 0.000000
0.11625700 -0.77125800 24.19583893 0.000000
0.12354800 -0.75731099 24.19548225 0.000000
0.29091200 -0.76432002 24.02486229 0.000000
0.29909700 -0.78097600 24.00375557 0.000000
0.10492000 -0.76088399 24.20078850 0.000000
0.11232900 -0.74561298 24.20061684 0.000000
0.28084099 -0.80157501 24.02470779 0.000000
0.28779900 -0.78881401 24.03042984 0.000000
0.11538800 -0.80065697 24.17664146 0.000000
0.11195000 -0.80361801 24.17684174 0.000000
0.26606300 -0.79945701 24.03805351 0.000000
0.13191099 -0.78810298 24.17226028 0.000000
0.22630700 -0.78772700 24.04160881 0.000000
0.21482600 -0.77115899 24.03229332 0.000000
0.10895100 -0.77960098 24.12056732 0.000000
0.08496000 -0.77515900 24.13485336 0.000000
0.26572999 -0.74507302 24.00524712 0.000000
0.07451600 -0.75472099 24.17316628 0.000000
0.27116001 -0.74115700 23.99526405 0.000000
0.10361700 -0.71560198 24.18518448 0.000000
0.30381101 -0.81422502 23.97004890 0.000000
0.07069100 -0.81632203 24.19974899 0.000000
0.06727600 -0.81399798 24.20163155 0.000000
0.30537200 -0.79643202 23.97895813 0.000000
0.07477200 -0.80675697 24.20242310 0.000000
0.27455699 -0.84446502 23.98233414 0.000000
0.05622900 -0.84408897 24.18297005 0.000000
0.27799201 -0.81932700 24.01054573 0.000000
0.06885500 -0.82852501 24.19258499 0.000000
0.08303300 -0.82020098 24.18863297 0.000000
0.22827099 -0.81602901 24.00492287 0.000000
0.10097700 -0.80450702 24.12954330 0.000000
0.05072400 -0.81923199 24.13821793 0.000000
0.24200501 -0.65721202 24.02144051 0.000000
0.25990799 -0.59029198 24.04019165 0.000000
0.26194900 -0.59501499 24.05064011 0.000000
0.25103900 -0.65739501 24.03499031 0.000000
0.05598600 -0.74558902 24.18925476 0.000000
0.04354300 -0.75369000 24.18287659 0.000000
0.01103100 -0.86778802 24.16845322 0.000000
0.05530400 -0.82915300 24.12729836 0.000000
0.21614601 -0.75213897 24.02783585 0.000000
0.21316400 -0.76193702 24.03498650 0.000000
0.11486700 -0.74898601 24.12141800 0.000000
0.25752601 -0.67157400 24.02685738 0.000000
0.04276600 -0.75473100 24.18016434 0.000000
0.00965100 -0.84034503 24.16858482 0.000000
0.01751700 -0.85637897 24.15085793 0.000000
0.22807200 -0.82028699 23.97718620 0.000000
0.22360000 -0.73338699 24.02342415 0.000000
1.34629297 0.53224498 24.57996178 0.000000
1.30615902 0.59211397 24.54100418 0.000000
1.25831294 0.53544998 24.54533005 0.000000
1.28531003 0.53002101 24.56191635 0.000000
1.24778199 0.53227198 24.59715652 0.000000
1.15417099 0.52002102 24.84721375 0.000000
1.23891699 0.56149000 24.63197327 0.000000
1.21311402 0.54408503 24.82200623 0.000000
1.18438101 0.44136101 24.85791016 0.000000
1.17957306 0.47209400 24.86094475 0.000000
0.96129102 -0.03990300 24.68601608 0.000000
0.91630399 -0.24008299 24.72265244 0.000000
0.93327701 -0.10643300 24.71865845 0.000000
0.15482700 -0.48881099 23.95777702 0.000000
0.03385100 -0.48587200 24.06632805 0.000000
0.14539300 -0.46499500 23.96110153 0.000000
0.19541700 -0.47415599 23.99594307 0.000000
0.06582700 -0.49003699 24.14202881 0.000000
0.21312401 -0.48165599 24.00780487 0.000000
0.06164800 -0.49878201 24.13692665 0.000000
0.03542800 -0.52718198 24.08603096 0.000000
0.17388900 -0.51475000 23.96036720 0.000000
0.03350400 -0.52281600 24.07964706 0.000000
0.23965199 -0.58995003 24.00978661 0.000000
0.07224600 -0.57488197 24.15877724 0.000000
0.24007900 -0.57229602 24.01112938 0.000000
0.09184400 -0.60463399 24.17548752 0.000000
0.10236100 -0.63526601 24.17017365 0.000000
0.45725799 0.52034998 24.23274422 0.000000
0.32717600 0.47818899 24.58071518 0.000000
0.27450499 0.51840299 24.48119926 0.000000
0.39736101 0.54382598 24.22041130 0.000000
0.33912101 0.42589200 24.53968811 0.000000
0.40010199 0.55420101 24.21938133 0.000000
0.36232701 0.56307203 24.28853226 0.000000
0.17698300 -0.61831099 23.93959045 0.000000
0.02435900 -0.56549901 24.04787827 0.000000
-0.04861700 -0.46537200 23.88758278 0.000000
0.46688700 -0.53793299 24.25127792 0.000000
0.44094199 -0.55099601 24.22265816 0.000000
0.46722299 -0.55156797 24.26119423 0.000000
0.47337800 -0.51121402 24.24221992 0.000000
0.37780499 -0.55106902 24.36578178 0.000000
0.38599700 -0.56112099 24.35894775 0.000000
0.38496500 -0.54339999 24.37218094 0.000000
0.41741899 -0.55163097 24.36885452 0.000000
0.45398501 -0.56540298 24.25301552 0.000000
0.45491701 -0.56449997 24.25358009 0.000000
0.47025099 -0.56029499 24.27174187 0.000000
0.43296701 -0.60065901 24.25264168 0.000000
0.39518699 -0.57055801 24.35284042 0.000000
0.38246101 -0.62280601 24.31760788 0.000000
0.42891201 -0.57987797 24.34958267 0.000000
0.40378800 -0.57425302 24.35114861 0.000000
0.36866701 -0.57535201 24.34747505 0.000000
0.43702200 -0.67878097 24.28150749 0.000000
0.45760399 -0.65588802 24.29750061 0.000000
0.45136401 -0.66627097 24.30700302 0.000000
0.43992999 -0.66491598 24.31080818 0.000000
0.45857900 -0.65309399 24.29585648 0.000000
0.45670301 -0.64627701 24.28479195 0.000000
0.47145700 -0.62910300 24.33048439 0.000000
0.43195999 -0.66113299 24.31541443 0.000000
0.47866699 -0.42976600 24.21812820 0.000000
0.47945699 -0.47807300 24.23529625 0.000000
0.45467001 -0.46285900 24.20594215 0.000000
0.36288100 -0.50198501 24.39058495 0.000000
0.40629801 -0.50105703 24.40435410 0.000000
0.35601300 -0.49230900 24.39472961 0.000000
0.35937199 -0.47326601 24.40801048 0.000000
0.39219999 -0.48420599 24.41092682 0.000000
0.44225699 -0.52297401 24.21408653 0.000000
0.44143400 -0.50605500 24.20759583 0.000000
0.46421501 -0.48945099 24.22426224 0.000000
0.35831800 -0.50482303 24.38751030 0.000000
0.37904900 -0.50790900 24.39188004 0.000000
0.35085499 -0.50796002 24.38345337 0.000000
0.38785401 -0.53414601 24.37916183 0.000000
0.42085499 -0.38707101 24.18481445 0.000000
0.41209599 -0.36909300 24.18456650 0.000000
0.47191700 -0.60049301 24.28929520 0.000000
0.46858799 -0.58438402 24.28214073 0.000000
0.47124201 -0.56919599 24.28033447 0.000000
0.44090900 -0.60684103 24.34016609 0.000000
0.41966000 -0.59464502 24.33970451 0.000000
0.40085101 -0.61976600 24.32313919 0.000000
0.43948600 -0.62335497 24.26695251 0.000000
0.44674700 -0.63479102 24.27410889 0.000000
0.44243300 -0.63770801 24.27075958 0.000000
0.43027201 -0.64281797 24.32393456 0.000000
0.40370300 -0.65975499 24.31105042 0.000000
0.40748101 -0.68083799 24.30585670 0.000000
0.40757701 -0.66531199 24.31052971 0.000000
0.36639199 0.51258099 24.26236153 0.000000
0.46720201 0.47713700 24.27954292 0.000000
0.42595300 0.50301498 24.22692108 0.000000
0.28342500 0.46240699 24.52051353 0.000000
0.23210500 -0.78929400 24.04488754 0.000000
0.12716800 -0.78819102 24.13536072 0.000000
0.24654500 -0.81129903 24.02774429 0.000000
0.10496300 -0.81456900 24.14958191 0.000000
0.25526500 -0.74823701 24.01326561 0.000000
0.24290501 -0.75856298 24.01170731 0.000000
0.07317500 -0.78191102 24.15360641 0.000000
0.11187200 -0.68402803 24.18045235 0.000000
0.21707700 -0.78368801 24.01718140 0.000000
0.21850200 -0.77021801 24.01395416 0.000000
0.09498800 -0.70182300 24.17522430 0.000000
0.09319400 -0.76288402 24.13264275 0.000000
0.11476300 -0.62818801 23.93711662 0.000000
0.15317900 -0.63653100 23.93104172 0.000000
0.18589400 -0.45128801 24.01043892 0.000000
0.17361800 -0.43965900 24.01841354 0.000000
0.18544900 -0.47277299 24.03581619 0.000000
0.11679100 -0.48738101 24.13648224 0.000000
0.11795400 -0.45915699 24.13793182 0.000000
0.19572701 -0.47436401 24.06671143 0.000000
0.12727800 -0.47452599 24.14282417 0.000000
0.13104600 -0.41941199 24.01487160 0.000000
0.15318300 -0.42606199 24.04523849 0.000000
0.10370500 -0.42522100 24.07410431 0.000000
0.15618600 -0.42668000 24.04543114 0.000000
0.15201500 -0.42535099 24.03878212 0.000000
0.12140800 -0.43455699 24.11179733 0.000000
0.10903700 -0.43187499 24.10077286 0.000000
0.92083400 -0.17357500 24.72963905 0.000000
0.91382903 -0.21647300 24.72886658 0.000000
-0.00812100 -0.46878800 23.85445213 0.000000
0.16363600 -0.54881102 23.94612503 0.000000
0.02330600 -0.51631999 24.05138206 0.000000
0.14516599 -0.44224900 23.98173332 0.000000
0.06034700 -0.44571501 24.08420181 0.000000
0.04408300 -0.45385799 24.06887627 0.000000
0.02745900 -0.41742200 24.00664139 0.000000
0.06191100 -0.40985301 23.91387939 0.000000
0.01070600 -0.41594401 23.97625923 0.000000
0.05910300 -0.42304999 24.03768349 0.000000
0.07984400 -0.42278999 24.04978180 0.000000
0.06493000 -0.41962701 24.02857018 0.000000
0.00413400 -0.40791199 23.95826530 0.000000
0.07308100 -0.40771699 23.94012451 0.000000
0.10586500 -0.41325200 23.98894691 0.000000
0.05054000 -0.41474900 24.01099586 0.000000
0.10462800 -0.41476101 23.96988106 0.000000
0.07623400 -0.41454300 23.92454147 0.000000
-0.00364900 -0.40928400 23.95301437 0.000000
-0.00192000 -0.40582499 23.94986725 0.000000
0.04141000 -0.36639801 23.88478661 0.000000
0.07138700 -0.43309399 24.08584785 0.000000
0.93714303 -0.10106600 24.71636581 0.000000
0.93532902 -0.08388700 24.70952415 0.000000
1.20561099 0.12319400 24.47035789 0.000000
1.09589100 0.11158900 24.79902649 0.000000
1.18117595 0.10245100 24.47672272 0.000000
1.18700695 0.10448000 24.47143745 0.000000
1.07496405 0.08901600 24.76334572 0.000000
1.33485496 0.13982899 24.58714485 0.000000
1.26760006 0.11862600 24.82000351 0.000000
1.26350200 0.10937600 24.81053925 0.000000
1.33826804 0.10742900 24.57213783 0.000000
1.25560498 0.09396400 24.79265594 0.000000
1.25626898 0.09614200 24.79316330 0.000000
1.22823596 0.16141400 24.48865700 0.000000
1.13392496 0.16023600 24.81288719 0.000000
1.21238601 0.14687400 24.49122047 0.000000
1.21010995 0.15883000 24.50758553 0.000000
1.11473095 0.13625500 24.80642509 0.000000
1.37186003 0.21753301 24.56417465 0.000000
1.25804603 0.18532801 24.86466026 0.000000
1.27402794 0.18311200 24.85968971 0.000000
1.30625200 0.21600400 24.50778198 0.000000
1.20299196 0.19602500 24.87042046 0.000000
1.30379200 0.23733400 24.51272392 0.000000
1.19205701 0.20199899 24.86295509 0.000000
0.48245901 -0.42541301 24.21863937 0.000000
0.39716899 -0.47135201 24.42408943 0.000000
0.40600899 -0.49055201 24.41341019 0.000000
0.03510500 -0.80844402 24.16469574 0.000000
0.27016401 -0.78000301 23.96251106 0.000000
0.05598600 -0.75693798 24.17684746 0.000000
0.92112398 -0.28016099 24.71001434 0.000000
0.07079300 -0.38358000 23.90199280 0.000000
0.17571799 -0.55742800 23.95100975 0.000000
0.17805199 -0.55049503 23.95360374 0.000000
0.43283600 -0.39554399 24.18655014 0.000000
0.44631699 -0.40084901 24.19392395 0.000000
0.44328600 -0.36557201 24.18660164 0.000000
0.44396999 -0.36960199 24.18760109 0.000000
0.34457499 -0.43179101 24.42679977 0.000000
0.45803699 -0.43008399 24.20235443 0.000000
0.45000601 -0.40691400 24.19668198 0.000000
0.43676800 -0.42438599 24.19153214 0.000000
0.34631801 -0.47485700 24.40250969 0.000000
0.34379199 -0.45919999 24.41053391 0.000000
0.36160201 0.29037699 24.21743393 0.000000
0.33295599 0.26799601 24.50099945 0.000000
0.33510801 0.28035599 24.50384140 0.000000
0.34932601 0.28678501 24.22777748 0.000000
0.33842799 0.30025601 24.50400543 0.000000
0.36634400 0.32219499 24.54748917 0.000000
0.43892401 0.41194499 24.24874496 0.000000
0.36476099 0.32338300 24.54720116 0.000000
0.34762201 0.15641800 24.22893715 0.000000
0.32180801 0.13918599 24.47601891 0.000000
0.35320801 0.13631800 24.22025108 0.000000
0.33777300 0.13689899 24.45592690 0.000000
0.42668301 0.12844200 24.52122688 0.000000
0.44172800 0.19074300 24.26371765 0.000000
0.43357500 0.12720899 24.50709152 0.000000
0.43236801 0.33475199 24.27734184 0.000000
0.42471200 0.31706199 24.51875305 0.000000
0.45376599 0.38754201 24.28734207 0.000000
0.40004101 0.36150500 24.30518532 0.000000
0.42144501 0.37649700 24.49794388 0.000000
0.42483699 0.37205499 24.50172234 0.000000
0.35504600 0.33333099 24.25934410 0.000000
0.34825999 0.26696399 24.46993446 0.000000
0.36116201 0.34171900 24.27827454 0.000000
0.36144000 0.34771100 24.27450180 0.000000
0.36759499 0.28543299 24.46672440 0.000000
0.40288299 0.39235899 24.23386192 0.000000
0.34768200 0.32252100 24.53104210 0.000000
0.42125401 0.41911799 24.24087334 0.000000
0.35558301 0.38711199 24.54646492 0.000000
0.41570300 0.29185000 24.22645378 0.000000
0.42584699 0.33255601 24.23570442 0.000000
0.40554300 0.18281101 24.29139137 0.000000
0.41663399 0.17415699 24.46968460 0.000000
0.41744000 0.16787800 24.29236984 0.000000
0.42506301 0.13053600 24.47719955 0.000000
0.38520199 0.16107801 24.19528198 0.000000
0.32786301 0.15248500 24.51035118 0.000000
0.39182901 0.17377900 24.19452667 0.000000
0.33750001 0.13224301 24.52478600 0.000000
0.38774499 0.11555400 24.28979111 0.000000
0.40002501 0.10439300 24.44991875 0.000000
0.39424899 0.12293500 24.44931412 0.000000
0.40040499 0.14189900 24.29393768 0.000000
0.40994000 0.10949600 24.45671654 0.000000
0.38430101 0.08122000 24.20274162 0.000000
0.39448801 0.07745900 24.19711494 0.000000
0.31570300 0.04793600 24.49547958 0.000000
0.31631300 0.06439300 24.49080086 0.000000
0.37219599 0.09650200 24.20762444 0.000000
0.31796500 0.09667400 24.47402763 0.000000
0.46883199 0.12386100 24.28647614 0.000000
0.43521199 0.09519400 24.51640129 0.000000
0.47837299 0.11603000 24.27449417 0.000000
0.43752900 0.06349500 24.52451324 0.000000
0.37231499 0.07819400 24.25962448 0.000000
0.33763200 0.06097800 24.44845390 0.000000
0.36260799 0.09885300 24.24721909 0.000000
0.36317000 0.10999400 24.25509644 0.000000
0.35094801 0.09319500 24.44703102 0.000000
0.47593501 0.10567000 24.23518562 0.000000
0.39274999 0.05751000 24.54390144 0.000000
0.46184999 0.11289300 24.21779251 0.000000
0.38618499 0.09894000 24.54125404 0.000000
1.19992101 0.05163900 24.42643738 0.000000
1.03915203 0.02557200 24.77914429 0.000000
1.03068995 0.01819600 24.77176094 0.000000
1.03069305 0.00493500 24.77721214 0.000000
1.04340100 0.01332200 24.79113579 0.000000
1.05595303 -0.00442600 24.81404114 0.000000
1.04726505 0.01395000 24.79604530 0.000000
1.11164498 0.01225300 24.46497726 0.000000
1.02506602 0.01252100 24.73034859 0.000000
1.02148795 0.00498100 24.71283722 0.000000
1.02029800 -0.00159800 24.70173454 0.000000
1.35563004 0.23182400 24.54490089 0.000000
1.24169898 0.20589200 24.87222290 0.000000
1.33257794 0.22149201 24.51907539 0.000000
1.21584296 0.18351500 24.86936951 0.000000
0.51825303 -0.38660899 24.21629333 0.000000
0.52240503 -0.40081900 24.22347641 0.000000
0.43364599 -0.45497099 24.45455360 0.000000
0.42752799 0.05831200 24.31071281 0.000000
0.43691099 0.03595100 24.31546974 0.000000
0.41398001 0.04725700 24.45072746 0.000000
0.42244899 0.08383400 24.30677605 0.000000
0.39297399 0.06470600 24.44165039 0.000000
0.55892700 -0.52224201 24.34930992 0.000000
0.55287600 -0.51614797 24.38817215 0.000000
0.55391997 -0.51190001 24.36693573 0.000000
0.56089503 -0.50901002 24.38394165 0.000000
0.55794400 -0.48264199 24.30882645 0.000000
0.56730902 -0.46446100 24.29833412 0.000000
0.48220500 -0.47098601 24.44729424 0.000000
0.49962100 -0.48809099 24.42970276 0.000000
0.57424498 -0.42862800 24.27195549 0.000000
0.50896800 -0.47736999 24.44418716 0.000000
0.49525699 -0.46778801 24.45245934 0.000000
0.38808501 0.17896999 24.29161835 0.000000
0.41297099 0.13964400 24.46285248 0.000000
0.39495301 0.17502201 24.45160675 0.000000
0.38185501 0.37867901 24.30694771 0.000000
0.40525901 0.36642000 24.48006630 0.000000
0.38530600 0.07767900 24.27988052 0.000000
0.37850699 0.08426500 24.27311325 0.000000
0.36022699 0.05991900 24.43953133 0.000000
0.39106700 0.09654500 24.29055786 0.000000
0.39037099 0.10093200 24.29049492 0.000000
0.37410200 0.10410700 24.44484138 0.000000
0.44658899 0.12630700 24.20841599 0.000000
0.37455299 0.05990900 24.54521179 0.000000
0.43413001 0.14080800 24.20365334 0.000000
0.37126100 0.11293900 24.54121399 0.000000
1.19643903 -0.02682100 24.84029579 0.000000
1.21711600 0.00271500 24.83487320 0.000000
1.16960204 0.00438800 24.84869194 0.000000
1.19659197 0.00670700 24.84084892 0.000000
1.16803205 -0.02268100 24.84810638 0.000000
1.19155097 -0.00603400 24.84183884 0.000000
1.34945297 0.05870800 24.55570412 0.000000
1.33115304 0.08590600 24.57080078 0.000000
1.24906003 0.07231200 24.78067589 0.000000
1.25667906 0.03616300 24.79559708 0.000000
1.32771599 0.06531200 24.57234764 0.000000
1.33107197 0.03792800 24.57079887 0.000000
1.25415301 0.03821600 24.77211380 0.000000
1.25163805 0.05165700 24.76921463 0.000000
1.25681603 0.02135200 24.76602745 0.000000
1.25968695 0.00564400 24.75428581 0.000000
1.26158798 0.00762200 24.79409218 0.000000
1.33921802 0.04766500 24.50720596 0.000000
1.33546400 0.04333400 24.50083351 0.000000
1.33035004 0.06180600 24.49919319 0.000000
1.33347595 0.06703000 24.50496864 0.000000
1.19317102 0.04549400 24.84513092 0.000000
1.21346402 0.04217100 24.83914757 0.000000
1.21206796 0.04491900 24.83981323 0.000000
1.30131602 0.11095800 24.47049522 0.000000
1.30960500 0.09998500 24.47999001 0.000000
1.31364000 0.08429600 24.48247528 0.000000
1.15437496 0.04126600 24.85583305 0.000000
1.15586996 0.03774300 24.85483551 0.000000
1.16722703 0.06777200 24.85598946 0.000000
1.15814996 -0.03609600 24.39039421 0.000000
1.16323698 -0.06516000 24.38171959 0.000000
1.26858795 0.05617000 24.43726349 0.000000
1.26133204 0.05807900 24.43642998 0.000000
1.21876001 0.05033800 24.42294502 0.000000
1.24035203 0.05899800 24.43193245 0.000000
1.07059002 0.01134500 24.82369995 0.000000
1.12618601 0.01883300 24.85036087 0.000000
1.06012595 -0.02567500 24.82358932 0.000000
1.11361098 0.02259500 24.84357834 0.000000
1.15103304 -0.00558900 24.85330009 0.000000
1.10211897 -0.02287700 24.83663940 0.000000
1.09949398 -0.00628000 24.83888245 0.000000
1.14779305 -0.01143600 24.85135460 0.000000
1.14999104 -0.02256700 24.84997177 0.000000
1.24387395 0.00494200 24.81238747 0.000000
1.24012697 -0.00385400 24.81600952 0.000000
1.34766197 0.12669900 24.54983330 0.000000
1.26050997 0.11631200 24.83178711 0.000000
1.34692097 0.10750400 24.55075073 0.000000
1.34288502 0.11734500 24.53752136 0.000000
1.25043702 0.07941600 24.82248116 0.000000
1.30039597 0.21145700 24.85365105 0.000000
1.37574196 0.25369400 24.59114456 0.000000
1.28930700 0.22292399 24.86239815 0.000000
1.28528500 0.31843901 24.86223412 0.000000
1.36294305 0.32501301 24.58999443 0.000000
1.35889900 0.52502298 24.60674095 0.000000
1.36454701 0.48353100 24.63390350 0.000000
1.27993703 0.49182501 24.89003944 0.000000
1.36222601 0.24188501 24.55555153 0.000000
1.27785301 0.20313001 24.86516571 0.000000
1.35795295 0.25871101 24.55071831 0.000000
1.25394702 0.22318600 24.87378311 0.000000
1.35348594 0.35281700 24.57186699 0.000000
1.35590303 0.37867799 24.57766914 0.000000
1.24968302 0.32710701 24.88283348 0.000000
1.36023998 0.35143000 24.58517265 0.000000
1.35380697 0.32311600 24.57099915 0.000000
1.27022302 0.32113999 24.87312126 0.000000
1.35093200 0.52698898 24.58280754 0.000000
0.45475200 0.03308900 24.19150543 0.000000
0.33533201 -0.02133100 24.53759193 0.000000
0.43415600 0.10193000 24.19673157 0.000000
0.43143600 0.08833400 24.19449425 0.000000
0.34544501 0.07117300 24.53400612 0.000000
0.41310301 0.13441999 24.19462585 0.000000
0.33562800 0.07836400 24.52654457 0.000000
0.42395601 0.14973199 24.19885254 0.000000
0.40953499 0.18293200 24.19711113 0.000000
0.40463901 0.21303400 24.19740486 0.000000
0.39243799 0.22819100 24.19565392 0.000000
0.39891401 0.24450400 24.19957352 0.000000
0.35064000 0.22620399 24.53909492 0.000000
0.34253100 0.22624101 24.53220749 0.000000
0.39199701 0.40299901 24.56471825 0.000000
0.46334100 0.41463000 24.28500748 0.000000
0.41199300 0.43343499 24.55766487 0.000000
1.16657305 0.51848501 24.86965752 0.000000
1.15062797 0.52735603 24.87068558 0.000000
1.15929794 0.52122802 24.89828873 0.000000
1.29748905 0.53853601 24.55838394 0.000000
1.26447105 0.54954600 24.53672981 0.000000
1.25604796 0.58288801 24.52227783 0.000000
1.25151098 0.53745598 24.61339569 0.000000
1.22464001 0.54938900 24.59325218 0.000000
1.25604296 0.53679103 24.57209969 0.000000
1.25636995 0.53196597 24.57972908 0.000000
1.22581995 0.55303401 24.55009270 0.000000
1.21821594 0.55949801 24.54702759 0.000000
1.27777195 0.56012303 24.53798294 0.000000
1.30169904 0.55288398 24.55095673 0.000000
1.25773704 0.53674102 24.62552261 0.000000
1.22126305 0.54522198 24.59816551 0.000000
1.22954798 0.54194301 24.60589790 0.000000
1.20374799 0.56691200 24.58999825 0.000000
0.16243200 -0.43381000 24.15864563 0.000000
0.21502200 -0.44102201 24.07981873 0.000000
0.22118600 -0.43895099 24.10491562 0.000000
0.20898101 -0.66036201 23.96934319 0.000000
0.06520800 -0.66318601 24.12839317 0.000000
0.22472200 -0.66247100 24.00171089 0.000000
0.06464900 -0.65013200 24.13240242 0.000000
0.19832100 -0.43345401 24.09539986 0.000000
0.15521900 -0.43706799 24.16042519 0.000000
0.16666900 -0.72141498 23.99888229 0.000000
0.08292000 -0.71488303 24.06506538 0.000000
0.18562201 -0.72577101 24.01305389 0.000000
0.10965400 -0.74540901 24.06999207 0.000000
0.09815700 -0.72986698 24.08044815 0.000000
0.11543600 -0.46106800 24.18885040 0.000000
0.12706400 -0.45880899 24.19143677 0.000000
0.00683600 -0.55602700 23.96564293 0.000000
0.11126800 -0.53809297 23.92622757 0.000000
0.04811800 -0.56050700 23.91109848 0.000000
0.00276200 -0.55233002 23.95147514 0.000000
0.01964700 -0.53248000 24.04310989 0.000000
-0.02272700 -0.41753399 23.93155479 0.000000
0.01416100 -0.40890101 23.95940018 0.000000
-0.00053300 -0.41335201 23.96118736 0.000000
-0.00164700 -0.41035101 23.94145966 0.000000
0.11574900 -0.41614500 23.98033333 0.000000
0.15891799 -0.42623800 24.02832413 0.000000
0.08129400 -0.42943999 24.09029388 0.000000
0.03446100 -0.42270899 24.02033615 0.000000
0.03057200 -0.40536001 23.89235306 0.000000
-0.00368300 -0.40788200 23.89597130 0.000000
-0.01377400 -0.41163200 23.90411949 0.000000
0.00893500 -0.35561100 23.89324951 0.000000
0.04091000 -0.40930700 24.03781319 0.000000
0.06571700 -0.43959999 24.08416176 0.000000
0.18482000 -0.46032599 24.04293633 0.000000
0.17121901 -0.46101099 24.02269554 0.000000
0.16988400 -0.44772601 24.03022194 0.000000
0.07719300 -0.43446800 24.08925629 0.000000
0.11798800 -0.44444799 24.13703537 0.000000
0.08531300 -0.43659699 24.09882355 0.000000
0.09562700 -0.43520999 24.11369324 0.000000
0.14504901 -0.42896801 24.00205994 0.000000
0.07349700 -0.41361901 23.91854668 0.000000
-0.01627200 -0.41678599 23.92239380 0.000000
0.07880800 -0.38531399 23.91740227 0.000000
0.07036200 -0.42618600 24.07620049 0.000000
0.05612500 -0.41610199 24.05147171 0.000000
0.13602100 -0.41986400 24.00474167 0.000000
0.19612201 -0.41214100 24.17005539 0.000000
0.20103601 -0.40768999 24.16374207 0.000000
0.55283898 -0.33572200 24.55924606 0.000000
0.45722201 0.45375201 24.30844307 0.000000
0.45826599 0.46364799 24.30225563 0.000000
0.42945001 0.24756201 24.24582100 0.000000
0.40104800 0.24248099 24.53728485 0.000000
0.42956200 0.24125899 24.25720215 0.000000
0.44947100 0.17657401 24.25902557 0.000000
0.41908199 0.11298800 24.53041649 0.000000
0.41455799 0.14917900 24.53039169 0.000000
0.43604100 0.34045601 24.26683426 0.000000
0.42302501 0.34924501 24.54129982 0.000000
0.44975999 0.37707099 24.27288818 0.000000
0.42736900 0.38244700 24.54830933 0.000000
0.50989801 0.05056300 24.29648018 0.000000
0.52637601 0.04343500 24.28215408 0.000000
0.52338499 0.04776300 24.28230286 0.000000
0.45042601 0.01069000 24.53040695 0.000000
1.36017799 0.18365000 24.59683228 0.000000
1.28516197 0.15744300 24.81998062 0.000000
1.35896206 0.20197301 24.60877609 0.000000
1.23854995 0.20703401 24.56148529 0.000000
1.17733395 0.20473699 24.77724075 0.000000
1.24768400 0.23016800 24.54070854 0.000000
1.17044795 0.21630700 24.79902840 0.000000
1.24130905 0.20186000 24.57755470 0.000000
1.19121397 0.21112600 24.77046585 0.000000
1.25743794 0.22472900 24.59167671 0.000000
1.21864998 0.20584600 24.76253319 0.000000
1.31923795 0.20341399 24.61638260 0.000000
1.34806097 0.21267700 24.61392021 0.000000
1.28016198 0.21183500 24.79874802 0.000000
1.29307401 0.19059800 24.85744476 0.000000
1.30617797 0.19555800 24.84311485 0.000000
1.34721100 0.26657701 24.53640175 0.000000
1.22635806 0.23973900 24.87837029 0.000000
1.34775102 0.23831099 24.53586006 0.000000
1.21794605 0.20904700 24.87697983 0.000000
1.28416896 0.33994401 24.84527206 0.000000
1.34986103 0.32024401 24.61570168 0.000000
1.28783202 0.28726500 24.84066010 0.000000
0.27493200 -0.72081101 23.99845505 0.000000
0.28611201 -0.73411900 23.99369812 0.000000
0.07123600 -0.73392898 24.19145012 0.000000
0.27353701 -0.72444201 23.99128342 0.000000
0.07098800 -0.72719097 24.17819214 0.000000
0.24497400 -0.76253903 24.08167648 0.000000
0.14949501 -0.77695602 24.15109825 0.000000
0.11866500 -0.71974599 24.17210579 0.000000
0.25573900 -0.72490698 24.03029060 0.000000
0.08807500 -0.42977899 24.08344841 0.000000
0.15250200 -0.42502299 24.04275513 0.000000
0.10661300 -0.42690501 24.08588028 0.000000
0.16544101 -0.43524200 24.01897240 0.000000
0.18520300 -0.45614499 24.00205994 0.000000
0.06625500 -0.45791200 24.11021042 0.000000
0.18709899 -0.47807199 23.98598671 0.000000
0.05615100 -0.47686401 24.11010742 0.000000
0.19443600 -0.56218302 23.96275711 0.000000
0.04662700 -0.57076299 24.11569595 0.000000
0.19609299 -0.55023700 23.96710396 0.000000
0.04439900 -0.53144503 24.10722923 0.000000
0.20563801 -0.46515900 24.01441383 0.000000
0.08079000 -0.46894801 24.15597343 0.000000
0.07875100 -0.46537700 24.14847183 0.000000
0.19400200 -0.56837499 23.96096992 0.000000
0.04141000 -0.59631902 24.10825348 0.000000
0.03189400 -0.59313297 24.08848953 0.000000
0.22894500 -0.63372898 23.99540329 0.000000
0.06443700 -0.62682199 24.13912582 0.000000
0.22957499 -0.60800898 23.99674034 0.000000
0.08881200 -0.61633301 24.16807175 0.000000
0.24158300 -0.53588301 24.01835632 0.000000
0.08437200 -0.54614103 24.18036270 0.000000
0.24811700 -0.54908901 24.02498436 0.000000
0.08917000 -0.53517199 24.18865395 0.000000
0.01623300 -0.36327499 23.87822151 0.000000
0.19547300 -0.49230301 23.98520279 0.000000
0.20193499 -0.52183801 23.98026085 0.000000
0.05162800 -0.53017098 24.12296677 0.000000
0.05048500 -0.53410602 24.12060928 0.000000
0.01264600 -0.42876199 24.02061844 0.000000
0.09760700 -0.42652500 23.91838074 0.000000
0.03066000 -0.36908600 23.87300110 0.000000
0.16966300 -0.48636499 23.97087669 0.000000
0.04568800 -0.48394501 24.08873940 0.000000
0.18035699 -0.48118600 23.98029709 0.000000
0.04710700 -0.49484101 24.09840775 0.000000
0.07163900 -0.59815902 23.93202019 0.000000
0.02374600 -0.59186298 23.96847725 0.000000
0.04335500 -0.63962901 23.99270821 0.000000
0.04486200 -0.67152500 24.02538109 0.000000
0.03966900 -0.66933501 24.02880859 0.000000
0.03262600 -0.62417901 24.09609032 0.000000
0.18084800 -0.59113401 23.94681931 0.000000
0.17691100 -0.60230899 23.94245338 0.000000
0.17022599 -0.58703798 23.94274902 0.000000
0.15609001 -0.54832000 23.94304466 0.000000
0.00856700 -0.52514499 24.00996590 0.000000
-0.01061900 -0.53090101 23.93214798 0.000000
0.01520700 -0.53098500 23.89326477 0.000000
0.10218800 -0.59948897 23.93502235 0.000000
0.05688200 -0.57983500 23.92198944 0.000000
0.02960400 -0.61252397 23.99676323 0.000000
0.08043200 -0.57205701 23.92265129 0.000000
0.03313400 -0.60654801 23.96818542 0.000000
0.06035000 -0.56999201 23.91755295 0.000000
0.07754700 -0.62285298 23.94470215 0.000000
0.03307400 -0.62691098 24.00198746 0.000000
0.02821500 -0.64700502 24.02471733 0.000000
0.03070400 -0.62289900 24.00639725 0.000000
0.05338200 -0.67464602 24.01984406 0.000000
0.07808500 -0.61710602 23.94112968 0.000000
0.12900500 -0.56723899 23.93751907 0.000000
-0.02963000 -0.50204301 23.92962646 0.000000
-0.00834500 -0.50586700 23.98034477 0.000000
0.02538300 -0.50517601 23.87601280 0.000000
0.01294600 -0.39983600 24.01084709 0.000000
0.02349900 -0.42032501 24.02819061 0.000000
0.12011200 -0.41650501 23.97849655 0.000000
0.09386500 -0.39664501 23.94766045 0.000000
0.12232200 -0.44873399 23.94375801 0.000000
0.02738900 -0.45881101 24.04651070 0.000000
0.03261100 -0.44938099 24.05113792 0.000000
-0.00238000 -0.40130201 23.99762917 0.000000
0.09142100 -0.41337499 23.91609764 0.000000
0.08259000 -0.38774201 23.92458534 0.000000
0.00153400 -0.38408399 23.99205971 0.000000
0.16035800 -0.81051201 24.05366325 0.000000
0.15062700 -0.81326801 24.06731796 0.000000
0.18539600 -0.82015198 24.07667542 0.000000
0.17156699 -0.82308698 24.09321404 0.000000
0.05318400 -0.65723699 23.99778366 0.000000
0.04859500 -0.64353102 23.98934746 0.000000
0.08050600 -0.41326901 24.01260567 0.000000
0.07435700 -0.40627801 23.98082542 0.000000
0.06086400 -0.40575999 23.98782730 0.000000
-0.01894400 -0.45513299 23.85322189 0.000000
0.03837800 -0.40375099 23.98055077 0.000000
0.03749500 -0.39334500 23.93725014 0.000000
-0.05006700 -0.44882500 23.87929726 0.000000
-0.02841600 -0.50132900 23.90262604 0.000000
0.13726801 -0.73945898 24.00640869 0.000000
0.09312400 -0.71779400 24.03539276 0.000000
0.14403699 -0.71908200 23.99838066 0.000000
0.10492500 -0.74660301 24.04539490 0.000000
-0.00003300 -0.54187101 23.91756058 0.000000
-0.00677200 -0.41371000 23.93191910 0.000000
0.00821100 -0.41330701 23.89872360 0.000000
-0.01516500 -0.41622299 23.91576385 0.000000
0.02609500 -0.58555299 23.94593811 0.000000
-0.00712300 -0.52664697 23.90367317 0.000000
0.10682400 -0.67435598 23.96895027 0.000000
0.10493400 -0.66962302 23.96547699 0.000000
0.04536100 -0.61192501 23.95492172 0.000000
-0.02230300 -0.51259702 23.91195107 0.000000
-0.02175100 -0.36126101 23.93322563 0.000000
0.20859000 -0.67852402 23.98370361 0.000000
0.07898600 -0.69598699 24.11791229 0.000000
0.20752800 -0.67394698 23.97778130 0.000000
0.05458700 -0.68944001 24.09844780 0.000000
-0.04542800 -0.39654601 23.93651199 0.000000
-0.02501300 -0.40668401 23.97406387 0.000000
0.07161500 -0.40945500 23.88818169 0.000000
-0.01560800 -0.41831300 23.98789406 0.000000
-0.02826800 -0.42047900 23.97274590 0.000000
0.07428700 -0.43642399 23.88998604 0.000000
0.06743400 -0.44381300 23.88273811 0.000000
0.02351700 -0.39057800 23.86055946 0.000000
0.61353397 -0.45938501 24.35413361 0.000000
0.60023999 -0.45800501 24.33434677 0.000000
0.50749600 0.05802100 24.24661446 0.000000
0.48539001 0.08926000 24.23715019 0.000000
0.40407300 0.00764400 24.54919243 0.000000
0.40523100 0.39006799 24.56335831 0.000000
0.44345799 0.36760101 24.25725555 0.000000
0.39806300 0.34948400 24.55591202 0.000000
0.43871400 0.18290100 24.22134781 0.000000
0.44334000 0.16134900 24.21971130 0.000000
0.38216701 0.13579801 24.54197884 0.000000
0.42943600 0.24377200 24.23827744 0.000000
0.39817700 0.21514399 24.53956223 0.000000
0.38812000 0.25866100 24.54093361 0.000000
0.46847001 0.13159700 24.24898148 0.000000
0.45931500 0.13782801 24.23478508 0.000000
0.40587100 0.07777900 24.53933716 0.000000
0.42176101 -0.67820603 24.25645256 0.000000
0.41046199 -0.64037502 24.24317551 0.000000
0.42400500 -0.64869303 24.25621033 0.000000
0.38194600 -0.65805900 24.21846581 0.000000
0.39940199 -0.67734098 24.30394936 0.000000
0.32342899 -0.68650699 24.26871490 0.000000
0.38712099 -0.67431700 24.29985428 0.000000
0.35232899 -0.67687100 24.28430176 0.000000
0.36595199 -0.66101199 24.29566765 0.000000
0.38458601 -0.69268900 24.22516441 0.000000
0.36344799 -0.69145501 24.20549583 0.000000
0.38690901 -0.69315797 24.22739410 0.000000
0.36807001 -0.69358802 24.21017075 0.000000
0.33360001 -0.68823302 24.27232933 0.000000
0.38255900 -0.69743401 24.28920174 0.000000
0.31569201 -0.69569498 24.26188469 0.000000
0.34532899 -0.71267802 24.26759148 0.000000
0.24730900 -0.85860097 23.96004677 0.000000
0.22879501 -0.76655900 24.08454514 0.000000
0.17145599 -0.77061999 24.14164925 0.000000
0.23424500 -0.68785101 24.02073669 0.000000
0.24618800 -0.85613000 23.95124817 0.000000
0.14034501 -0.65560597 23.93399811 0.000000
0.02690000 -0.67027199 24.06326485 0.000000
0.03139500 -0.67376000 24.07517624 0.000000
0.13676301 -0.61319202 23.94103050 0.000000
0.02946900 -0.62321502 24.04120827 0.000000
0.25064799 -0.71414602 24.03566933 0.000000
0.24971400 -0.69616598 24.03926468 0.000000
0.10948200 -0.72123700 24.14743614 0.000000
0.10602400 -0.69331902 24.15274620 0.000000
0.11584700 -0.67607898 24.16683578 0.000000
0.10801900 -0.65228200 24.17130661 0.000000
0.11120600 -0.64385903 24.17792892 0.000000
0.12574001 -0.66649699 24.18987656 0.000000
0.12937000 -0.64241803 24.19585991 0.000000
0.13552600 -0.67571199 24.19300079 0.000000
1.18324804 0.02574200 24.66830254 0.000000
1.17472804 0.04376800 24.68412209 0.000000
1.22773099 0.01252900 24.69402885 0.000000
1.22212005 0.01252900 24.68812370 0.000000
1.27965903 0.25658700 24.61284637 0.000000
1.28018105 0.23994000 24.61458588 0.000000
1.24708200 0.24509899 24.78151321 0.000000
1.32140696 0.22542900 24.61848450 0.000000
1.27311897 0.21482800 24.79194450 0.000000
1.29882205 0.39495599 24.62547684 0.000000
1.25484097 0.38509899 24.81835365 0.000000
1.25673795 0.38921601 24.81883049 0.000000
1.28416598 0.42520201 24.62525368 0.000000
1.24597299 0.42349300 24.81781006 0.000000
1.29112804 0.17639101 24.60938072 0.000000
1.22317898 0.15704200 24.75539398 0.000000
1.21946096 0.15490501 24.75354767 0.000000
1.26803398 0.14823399 24.59869576 0.000000
1.20016098 0.15331800 24.74785423 0.000000
1.21982300 0.52723098 24.82438087 0.000000
1.30219197 0.21140000 24.61716652 0.000000
1.25631106 0.20889901 24.77646828 0.000000
1.25506198 0.19923300 24.77430153 0.000000
0.06101700 -0.41507301 23.87653542 0.000000
0.06705500 -0.51945603 23.89956856 0.000000
-0.03351900 -0.49834999 23.92019844 0.000000
-0.01619800 -0.51465201 23.95276260 0.000000
0.03453700 -0.51603901 23.88431740 0.000000
0.18786401 -0.70511699 23.99579620 0.000000
0.18624200 -0.71181899 24.00082207 0.000000
0.09299700 -0.72070199 24.09093857 0.000000
0.19308800 -0.70079798 23.99464989 0.000000
0.06125000 -0.69412202 24.10041618 0.000000
0.02437400 -0.66651303 24.05451393 0.000000
0.03294600 -0.67270303 24.04793930 0.000000
0.17010300 -0.63788497 23.93273735 0.000000
1.34355497 0.27531201 24.53758049 0.000000
1.34812105 0.29197901 24.54793930 0.000000
1.22877300 0.26360700 24.87708473 0.000000
1.33869195 0.30640101 24.54723358 0.000000
1.32576895 0.31813300 24.53751564 0.000000
1.23017704 0.27896199 24.87706947 0.000000
1.34434700 0.49859899 24.56917763 0.000000
1.22298396 0.45021400 24.91026306 0.000000
1.34226501 0.47407699 24.56316948 0.000000
1.34935796 0.48585200 24.57128334 0.000000
1.23197103 0.43708900 24.90819550 0.000000
1.25966001 0.30862600 24.58157158 0.000000
1.19513500 0.28180301 24.79776382 0.000000
1.25875700 0.29746801 24.57225418 0.000000
1.25373995 0.27516100 24.55194473 0.000000
1.18897402 0.27422500 24.80245972 0.000000
1.27408504 0.30126801 24.60357094 0.000000
1.26671302 0.28780201 24.59476852 0.000000
1.20371604 0.27416900 24.79225731 0.000000
1.22278202 0.30476400 24.79655266 0.000000
1.25790906 0.28720200 24.58159828 0.000000
1.22626901 0.31423101 24.79864311 0.000000
1.20379102 0.31611300 24.80543137 0.000000
1.26485896 0.52027202 24.62430191 0.000000
1.20046401 0.51766700 24.82885933 0.000000
1.27651298 0.48002401 24.63127899 0.000000
1.26431501 0.47880900 24.60785675 0.000000
1.21677494 0.50452298 24.82556343 0.000000
1.31647599 0.51762497 24.56185532 0.000000
1.19545805 0.50009501 24.90404892 0.000000
1.31824303 0.49123600 24.55698776 0.000000
1.32120097 0.50169998 24.56015015 0.000000
1.21039796 0.46450800 24.90470505 0.000000
1.27857804 0.27104700 24.52696800 0.000000
1.29713595 0.30206400 24.53292656 0.000000
1.19743395 0.28195000 24.86253929 0.000000
1.29799294 0.32739699 24.54078102 0.000000
1.30844796 0.31357199 24.53494644 0.000000
1.21247995 0.29661599 24.87632751 0.000000
1.33663499 0.25866401 24.61691475 0.000000
1.28522301 0.27177200 24.82723236 0.000000
1.31955302 0.25578600 24.62088394 0.000000
1.33755898 0.28908601 24.61576843 0.000000
1.27382004 0.27382100 24.81158447 0.000000
1.33173895 0.45566499 24.64307594 0.000000
1.33110595 0.47431400 24.64658546 0.000000
1.27352595 0.46695301 24.83972168 0.000000
1.30811596 0.46770200 24.64543915 0.000000
1.32019305 0.46524000 24.64470291 0.000000
1.25691795 0.46194199 24.82457542 0.000000
1.26700997 0.29324701 24.54679108 0.000000
1.27063704 0.31990099 24.55297852 0.000000
1.18691897 0.31629401 24.83188438 0.000000
1.28728199 0.30743799 24.53633881 0.000000
1.26986802 0.28071800 24.53859901 0.000000
1.17768896 0.24563400 24.84065628 0.000000
1.28299403 0.52189499 24.56548882 0.000000
1.29038501 0.52543497 24.56404686 0.000000
1.36467195 0.46980599 24.63101387 0.000000
1.36505997 0.46734899 24.62898254 0.000000
1.28994203 0.44776800 24.87728691 0.000000
1.36975503 0.44809201 24.60607147 0.000000
1.28729403 0.44456500 24.88215065 0.000000
1.36559796 0.29885501 24.58835983 0.000000
1.36682796 0.29428801 24.59819794 0.000000
1.37224102 0.27245799 24.60077858 0.000000
1.28914797 0.27909100 24.85547638 0.000000
1.36239696 0.49640301 24.59016418 0.000000
1.25414705 0.46423301 24.91043472 0.000000
1.36809897 0.45855001 24.59915161 0.000000
1.36288500 0.46924701 24.58714294 0.000000
1.27626801 0.42064399 24.89236641 0.000000
1.36150801 0.27281499 24.56228828 0.000000
1.35091305 0.30418801 24.55918121 0.000000
1.26989901 0.25378099 24.86987877 0.000000
1.35577404 0.30533099 24.56879807 0.000000
1.35409796 0.31465301 24.57058716 0.000000
1.27094197 0.27435601 24.86890221 0.000000
1.36245000 0.46219999 24.63138390 0.000000
1.29049003 0.40643299 24.86616516 0.000000
1.28412998 0.42448300 24.85142708 0.000000
1.34398496 0.47412699 24.64246559 0.000000
1.28883195 0.47308099 24.86622810 0.000000
1.28163004 0.43955201 24.84630394 0.000000
1.29570496 0.24331100 24.83079910 0.000000
1.36115694 0.28772700 24.60687828 0.000000
1.29027402 0.28593799 24.85065651 0.000000
1.19084001 0.51371503 24.83303833 0.000000
1.30006099 0.27875501 24.61763000 0.000000
1.28696203 0.26046199 24.61398315 0.000000
1.23754203 0.25811800 24.78139496 0.000000
1.24865603 0.28078699 24.79356003 0.000000
1.28577197 0.29897800 24.61307335 0.000000
1.23494899 0.26594701 24.78222275 0.000000
1.24134696 0.29642400 24.79577065 0.000000
1.27824295 0.48410499 24.63497734 0.000000
1.23295999 0.47222000 24.81836891 0.000000
1.28699195 0.47308099 24.63918686 0.000000
1.23882306 0.47021800 24.81903458 0.000000
1.24379694 0.47823900 24.82114029 0.000000
0.38327801 0.04951100 24.21009636 0.000000
0.31363699 0.04302000 24.48283195 0.000000
0.39685699 0.01600300 24.20678711 0.000000
0.30890501 -0.00517500 24.46517563 0.000000
0.31111100 0.02958700 24.47529984 0.000000
0.38917500 0.07106800 24.28319550 0.000000
0.36706200 0.05465900 24.43897057 0.000000
0.40297601 0.04057200 24.29491615 0.000000
0.39185899 0.04922100 24.44034767 0.000000
0.46944499 0.08228600 24.30772781 0.000000
0.49231401 0.06814600 24.30115509 0.000000
0.44638899 0.04525700 24.48907089 0.000000
0.47974199 0.05717700 24.31341171 0.000000
0.45077199 0.00948400 24.49011421 0.000000
0.46376899 0.08869200 24.20881271 0.000000
0.36262500 0.03473600 24.54566765 0.000000
0.47894201 0.06805100 24.21210670 0.000000
0.34996301 0.01164700 24.54610825 0.000000
0.35485700 0.01634700 24.54645729 0.000000
0.38068500 0.03572600 24.24217606 0.000000
0.33213300 0.04429200 24.45049858 0.000000
0.38226601 0.02509400 24.22270584 0.000000
0.38375801 0.02042600 24.23570824 0.000000
0.33490300 0.00633800 24.44460869 0.000000
0.50764298 0.07037600 24.26321793 0.000000
0.51538497 0.05773800 24.26271820 0.000000
0.42707601 0.02912500 24.54136086 0.000000
0.45359901 0.07416600 24.31206322 0.000000
0.42873099 0.05821000 24.46441269 0.000000
0.42826301 0.02932500 24.45807076 0.000000
0.46461600 0.07344300 24.31205368 0.000000
0.43801001 0.03838100 24.47158051 0.000000
0.43185899 0.03586800 24.19048309 0.000000
0.32830301 0.04494100 24.52137947 0.000000
0.32627499 0.01961300 24.52435112 0.000000
0.42488700 0.03269700 24.19206238 0.000000
0.31309500 0.01083400 24.50177765 0.000000
0.39144599 -0.00055800 24.27404022 0.000000
0.34265700 0.00299600 24.44002151 0.000000
0.33913201 0.00284200 24.44037819 0.000000
0.39995399 0.02574600 24.28790855 0.000000
0.35080901 0.00362700 24.43814850 0.000000
0.45712700 0.03170700 24.32402039 0.000000
0.43456399 0.02689400 24.31785774 0.000000
0.44165400 0.08697600 24.19695854 0.000000
0.35003501 0.04707700 24.54077530 0.000000
0.34793299 0.02396800 24.54370308 0.000000
0.43349400 0.06377500 24.19139862 0.000000
0.33789000 0.03292400 24.53424263 0.000000
0.51142198 0.03514200 24.30635071 0.000000
0.45558399 0.42322600 24.30740547 0.000000
0.43054101 0.41458899 24.53203964 0.000000
0.42414501 0.41600499 24.54739952 0.000000
0.45689300 0.46014601 24.25623512 0.000000
0.44484699 0.42862099 24.25245285 0.000000
0.45296401 0.43207699 24.31281281 0.000000
0.43178001 0.38014299 24.52086067 0.000000
0.43910399 0.43532100 24.31811905 0.000000
0.43388301 0.41327101 24.31455612 0.000000
0.42857000 0.39515799 24.51217079 0.000000
0.40868300 0.42930701 24.56169128 0.000000
0.43620199 0.43070999 24.24666214 0.000000
0.36672100 0.40965900 24.56025505 0.000000
1.33822203 0.32386401 24.55057907 0.000000
1.24361002 0.33080801 24.88416672 0.000000
1.24696004 0.33461499 24.88481903 0.000000
1.33103597 0.39481500 24.55228043 0.000000
1.23127496 0.34795901 24.88700294 0.000000
1.22151399 0.35226601 24.88773918 0.000000
1.26809704 0.43843400 24.59591293 0.000000
1.19210899 0.41253501 24.84101868 0.000000
1.26897097 0.44760099 24.58342361 0.000000
1.27211297 0.43429199 24.57319450 0.000000
1.18708003 0.43645999 24.84672356 0.000000
1.27583098 0.37714800 24.60406113 0.000000
1.27299595 0.35078299 24.59782219 0.000000
1.22246099 0.32614401 24.80306625 0.000000
1.22087896 0.34079599 24.80636787 0.000000
1.27225900 0.38690600 24.59717941 0.000000
1.21021295 0.35699999 24.81320190 0.000000
1.30643201 0.49247000 24.55545807 0.000000
1.30610394 0.44496399 24.55439568 0.000000
1.20466805 0.45802501 24.90110016 0.000000
1.19784796 0.45086399 24.89300156 0.000000
1.32466900 0.44515100 24.55444527 0.000000
1.21957195 0.42326900 24.90386963 0.000000
1.20995998 0.40881899 24.89077759 0.000000
1.33106005 0.30193901 24.61730957 0.000000
1.33413196 0.30477101 24.61709785 0.000000
1.28144705 0.31828600 24.83471489 0.000000
1.27326000 0.29483801 24.81926727 0.000000
1.31377602 0.34566301 24.62539482 0.000000
1.31686401 0.33713499 24.62376213 0.000000
1.26215804 0.32495800 24.81162643 0.000000
1.27004802 0.34629601 24.82612419 0.000000
1.27863395 0.38390800 24.56167221 0.000000
1.18718505 0.32967001 24.83178329 0.000000
1.19107103 0.38117999 24.84996223 0.000000
1.28386605 0.36879000 24.55535316 0.000000
1.29000199 0.38567701 24.55431175 0.000000
1.19401300 0.34672299 24.85871506 0.000000
1.19390202 0.31374100 24.85734749 0.000000
1.36468196 0.37683001 24.60486031 0.000000
1.28621101 0.34684399 24.86561394 0.000000
1.36637604 0.39335099 24.59805489 0.000000
1.27941406 0.37794200 24.88055420 0.000000
1.35799694 0.42577699 24.57912064 0.000000
1.35643601 0.40066299 24.57833481 0.000000
1.25228202 0.42588699 24.90523911 0.000000
1.36615598 0.42003399 24.59676743 0.000000
1.36844397 0.42792901 24.60102272 0.000000
1.25519800 0.36928701 24.88881874 0.000000
1.35177100 0.37309700 24.62098885 0.000000
1.35813296 0.39714700 24.62177849 0.000000
1.28551197 0.37589601 24.85173416 0.000000
1.36377501 0.41191599 24.62130547 0.000000
1.28917599 0.35006499 24.86204147 0.000000
1.30918705 0.36870399 24.62680817 0.000000
1.30487096 0.31948200 24.61965370 0.000000
1.25661504 0.30642101 24.80548477 0.000000
1.28936696 0.36077401 24.61720276 0.000000
1.31013298 0.37467700 24.62784195 0.000000
1.25125694 0.37447000 24.81650925 0.000000
1.25031805 0.37861499 24.81704521 0.000000
1.12053704 0.55913502 24.87483978 0.000000
1.20557296 0.56228203 24.57909584 0.000000
1.22295499 0.55303198 24.59428406 0.000000
1.15454996 0.54584903 24.83207512 0.000000
0.20750800 -0.81418997 24.09666824 0.000000
0.18565799 -0.81844598 24.11154747 0.000000
0.21882001 -0.82348001 24.12303734 0.000000
0.20472001 -0.81713802 24.12787628 0.000000
0.19214000 -0.81716901 24.11847878 0.000000
0.22428100 -0.79235500 24.09700394 0.000000
0.17014700 -0.77706301 24.13395500 0.000000
0.17359200 -0.77774000 24.13706970 0.000000
0.21961500 -0.79346198 24.09262466 0.000000
0.16551299 -0.79814899 24.11315918 0.000000
0.34420300 0.23963900 24.26799965 0.000000
0.38265499 0.23416500 24.45411873 0.000000
0.35293201 0.27127501 24.27726936 0.000000
0.38799900 0.27189800 24.46296883 0.000000
0.35896301 0.27594900 24.28384781 0.000000
0.38886601 0.25551599 24.46014595 0.000000
0.40355200 0.23412199 24.46345520 0.000000
0.37588701 0.38497400 24.29417038 0.000000
