-0.57732099 -0.57560903 4.63938808 0.000000
-0.59301198 -0.52283102 4.57811213 0.000000
-0.59103698 -0.54424500 4.59593391 0.000000
-0.53812802 -0.52859700 4.66537285 0.000000
-0.61770803 -0.55979598 4.62824297 0.000000
-0.57047999 -0.55927300 4.65459013 0.000000
-0.58793801 -0.55768299 4.66529417 0.000000
-0.07515500 0.39489400 4.51987791 0.000000
-0.05090500 0.36143300 4.10568190 0.000000
-0.07416500 0.41661701 4.52312708 0.000000
-0.03451100 0.38803300 4.08480883 0.000000
-0.06980900 0.39667699 4.50034714 0.000000
-0.06472300 0.40554699 4.49809217 0.000000
-0.03590600 0.35919699 4.10038996 0.000000
-0.02066400 0.48604101 4.02683306 0.000000
-0.00540700 0.50827402 4.01477718 0.000000
-0.07055500 0.56677598 4.53719378 0.000000
-0.07281300 0.50196999 4.53683090 0.000000
-0.54028100 -0.44274500 4.53128195 0.000000
-0.55628198 -0.43032399 4.52631378 0.000000
-0.54018098 -0.42911100 4.52524805 0.000000
-0.46575201 -0.44949099 4.65269089 0.000000
-0.47335801 -0.45798200 4.65997696 0.000000
-0.45648801 -0.43827799 4.64514685 0.000000
-0.57696199 -0.47160301 4.54130697 0.000000
-0.54078901 -0.48160499 4.54720020 0.000000
-0.55727500 -0.46409500 4.54014778 0.000000
-0.48044100 -0.47616801 4.65168715 0.000000
-0.48036399 -0.48265100 4.64147806 0.000000
-0.55188203 -0.54310501 4.57311821 0.000000
-0.53353900 -0.53342801 4.56754208 0.000000
-0.56030798 -0.52657998 4.56843805 0.000000
-0.53672802 -0.52083200 4.56358004 0.000000
-0.49303600 -0.52329302 4.62134409 0.000000
-0.51682103 -0.52097702 4.65407515 0.000000
-0.50310200 -0.53814399 4.62558508 0.000000
-0.54879302 -0.55027699 4.57635498 0.000000
-0.56611502 -0.53572899 4.57323599 0.000000
-0.51689798 -0.55493301 4.62910223 0.000000
-0.51544499 -0.54865199 4.63424015 0.000000
-0.65739399 -0.12816900 4.68454695 0.000000
-0.70355701 -0.07957300 4.72451687 0.000000
-0.73211300 -0.05259200 4.79298210 0.000000
-0.59452099 -0.21694800 4.53976583 0.000000
-0.47722101 -0.22967900 4.71358490 0.000000
-0.45627800 -0.23703299 4.69740200 0.000000
-0.51890701 -0.25298899 4.49928379 0.000000
-0.41802701 -0.26185000 4.65187693 0.000000
-0.50437099 -0.24780899 4.49021387 0.000000
-0.50823301 -0.24852200 4.49344921 0.000000
-0.40666401 -0.25024599 4.64268303 0.000000
-0.48168501 -0.16542500 4.54846811 0.000000
-0.50109398 -0.20212699 4.52359390 0.000000
-0.49553201 -0.19869401 4.52418613 0.000000
-0.55633301 -0.30233401 4.50839186 0.000000
-0.45436200 -0.30235499 4.69762707 0.000000
-0.54859698 -0.28814799 4.50510311 0.000000
-0.43119600 -0.27996501 4.66971588 0.000000
-0.48174599 -0.16942900 4.53930902 0.000000
-0.52196801 -0.22979900 4.51006413 0.000000
-0.51651698 -0.21998499 4.51662493 0.000000
-0.42539600 -0.21219601 4.63158512 0.000000
-0.54730099 -0.26576701 4.50441122 0.000000
-0.43519899 -0.26024801 4.66931295 0.000000
-0.52552903 -0.24551199 4.50436401 0.000000
-0.58473098 -0.35979000 4.52716589 0.000000
-0.58734500 -0.32533699 4.52520990 0.000000
-0.46190801 -0.14293499 4.53914404 0.000000
-0.43261501 -0.14785300 4.59366322 0.000000
-0.42823699 -0.15371300 4.59791517 0.000000
-0.46975800 -0.18470500 4.49435282 0.000000
-0.39478901 -0.20512000 4.62143803 0.000000
-0.49209499 -0.19870900 4.52093601 0.000000
-0.50436902 -0.29527199 4.47912693 0.000000
-0.51685899 -0.28991500 4.48777819 0.000000
-0.41131201 -0.30541399 4.65350485 0.000000
-0.42409199 -0.29198599 4.66195488 0.000000
-0.53460002 -0.29081601 4.49939013 0.000000
-0.41768101 -0.33157501 4.65730810 0.000000
-0.48249200 -0.21360099 4.48803806 0.000000
-0.38202101 -0.20338200 4.61892080 0.000000
-0.49301100 -0.22066100 4.49766111 0.000000
-0.41541100 -0.23791400 4.64273882 0.000000
-0.46395701 -0.14985099 4.52197695 0.000000
-0.41192600 -0.15402500 4.59968376 0.000000
-0.47815400 -0.17173500 4.52928591 0.000000
-0.47822800 -0.23558800 4.46949816 0.000000
-0.46024400 -0.26189500 4.44265318 0.000000
-0.46234000 -0.26917100 4.44237280 0.000000
-0.33559901 -0.26212600 4.62137794 0.000000
-0.38207099 -0.27358499 4.63742399 0.000000
-0.36468399 -0.27713200 4.63304520 0.000000
-0.33112201 -0.26572201 4.62080622 0.000000
-0.44425100 -0.21905200 4.43792915 0.000000
-0.44282299 -0.24357700 4.43033791 0.000000
-0.45835501 -0.22432201 4.45146084 0.000000
-0.41989800 -0.23374800 4.40865707 0.000000
-0.33081999 -0.24447501 4.61700296 0.000000
-0.33444601 -0.24204800 4.61764812 0.000000
-0.34969801 -0.24010301 4.62149906 0.000000
-0.28505400 -0.21601500 4.60073185 0.000000
-0.55477101 -0.38769200 4.51586580 0.000000
-0.57105798 -0.40411499 4.52258301 0.000000
-0.46126199 -0.38529500 4.68004322 0.000000
-0.46277601 -0.42706299 4.67257214 0.000000
-0.46368900 -0.40147400 4.67901802 0.000000
-0.47104099 -0.41654101 4.68310499 0.000000
0.30701599 0.14805000 3.73382211 0.000000
0.31480300 0.15190700 3.73688412 0.000000
0.56959599 0.16427800 4.00207615 0.000000
0.34257999 0.17177001 3.71189404 0.000000
0.58233500 0.15692399 4.01097584 0.000000
0.41072801 0.15415999 3.75836897 0.000000
0.39250201 0.15745400 3.76326609 0.000000
0.38959399 0.15673000 3.76563692 0.000000
0.57016802 0.19026101 3.93987298 0.000000
0.42012399 0.14748999 3.75860691 0.000000
0.41226199 0.14386700 3.76733899 0.000000
0.42400199 0.13539200 3.76752496 0.000000
0.56767797 0.18158901 3.91767192 0.000000
0.56303400 0.17761000 3.91626906 0.000000
0.51977199 0.14767499 3.91742611 0.000000
0.53033698 0.15438101 3.91593599 0.000000
0.48276100 0.11110200 3.69813800 0.000000
0.48994499 0.10614600 3.66287589 0.000000
0.48210400 0.10860400 3.69987106 0.000000
0.61074299 0.12866300 3.84445310 0.000000
0.60904902 0.12808500 3.84470701 0.000000
0.62129498 0.16218200 3.85235691 0.000000
0.47946101 0.10221200 3.72304106 0.000000
0.47919899 0.09916500 3.72303700 0.000000
0.47918299 0.08533700 3.70584202 0.000000
0.57012701 0.11092100 3.84375906 0.000000
0.60391903 0.12579200 3.84505010 0.000000
0.35815901 0.14350399 3.78098702 0.000000
0.33387899 0.15519600 3.75694394 0.000000
0.36327800 0.14157800 3.78508306 0.000000
0.53287202 0.15186700 4.00125504 0.000000
0.55287200 0.16559801 3.97642493 0.000000
0.53039199 0.15268500 3.98955393 0.000000
0.35002601 0.17176600 3.72974396 0.000000
0.36484599 0.16291800 3.74989510 0.000000
0.56756002 0.17277101 3.98083496 0.000000
0.53344399 0.16482800 3.94787502 0.000000
0.56359297 0.17945300 3.96120095 0.000000
0.34655300 0.12852700 3.63880301 0.000000
0.33949700 0.10529300 3.64233804 0.000000
0.34698600 0.13248000 3.63897991 0.000000
0.64254200 0.11515800 4.00162697 0.000000
0.67319602 0.10501400 3.97898602 0.000000
0.67132002 0.09777500 3.97977901 0.000000
0.66799700 0.11832300 3.98370004 0.000000
0.36713600 0.11100300 3.61744094 0.000000
0.36423799 0.11693000 3.62080002 0.000000
0.67163801 0.14654499 3.98256993 0.000000
0.68538600 0.12110200 3.96937704 0.000000
0.70097101 0.12342800 3.95493507 0.000000
0.67074800 0.07569200 3.87116504 0.000000
0.68438601 0.08432800 3.88835907 0.000000
0.47914800 0.09710000 3.62001801 0.000000
0.45908701 0.08329300 3.62405205 0.000000
0.67818099 0.10986600 3.84351897 0.000000
0.69214100 0.11635300 3.87530708 0.000000
0.45454401 0.15257700 3.72380090 0.000000
0.44549900 0.15261500 3.73290110 0.000000
0.45723900 0.14402901 3.72968698 0.000000
0.58025098 0.16755900 3.87899089 0.000000
0.58414501 0.17950100 3.89459109 0.000000
0.57335401 0.16112199 3.87567711 0.000000
0.47043499 0.11812000 3.73432398 0.000000
0.47595999 0.13383000 3.72061610 0.000000
0.45776099 0.11772200 3.75164390 0.000000
0.56784600 0.12150800 3.85003591 0.000000
0.60097802 0.16866000 3.86054897 0.000000
0.58818501 0.15297700 3.85805702 0.000000
-0.27132601 -0.37720099 4.38096523 0.000000
-0.21152300 -0.40154999 4.45735216 0.000000
-0.27237499 -0.41371101 4.40917301 0.000000
-0.22897200 -0.42468700 4.46158886 0.000000
-0.22486299 -0.41691899 4.46006680 0.000000
-0.20914701 -0.37260699 4.35094309 0.000000
-0.16189300 -0.39534301 4.42137480 0.000000
-0.21054600 -0.40526900 4.37541580 0.000000
-0.21043199 -0.42360300 4.38686085 0.000000
-0.16966200 -0.38880301 4.43627977 0.000000
-0.17687701 -0.38697001 4.44642496 0.000000
-0.72976601 -0.06733700 4.74927711 0.000000
-0.68507499 -0.07988000 4.84576988 0.000000
-0.57714200 -0.33634299 4.52115583 0.000000
-0.46388301 -0.32170400 4.70072985 0.000000
-0.56448501 -0.30983701 4.51132011 0.000000
-0.45099401 -0.33140701 4.68345404 0.000000
-0.55453098 -0.33657899 4.51143312 0.000000
-0.44145501 -0.36407101 4.66506100 0.000000
-0.44866401 -0.36882800 4.67104816 0.000000
-0.52709401 -0.36345300 4.49763584 0.000000
-0.52793598 -0.34018299 4.49479103 0.000000
-0.41637799 -0.34129000 4.65514898 0.000000
-0.42034999 -0.35620901 4.65403795 0.000000
-0.62204099 -0.32881400 4.78931999 0.000000
-0.74087203 -0.21723799 4.72225904 0.000000
-0.76891297 -0.18657701 4.75287199 0.000000
-0.05043800 0.42115000 3.98511505 0.000000
-0.02214600 0.44225401 3.95640397 0.000000
-0.00516800 0.52616501 4.57338190 0.000000
-0.73083597 -0.09706700 4.85790586 0.000000
-0.51478201 -0.37672800 4.49345303 0.000000
-0.47581401 -0.39520299 4.47553301 0.000000
-0.49759299 -0.38948199 4.48649120 0.000000
-0.49844101 -0.36736700 4.48243809 0.000000
-0.39632201 -0.37622699 4.63332891 0.000000
-0.39378500 -0.40519699 4.62421989 0.000000
-0.41885400 -0.36458001 4.65100384 0.000000
-0.39246401 -0.38357899 4.62892294 0.000000
-0.40001199 -0.38887599 4.63247681 0.000000
-0.45272300 -0.38505501 4.45694017 0.000000
-0.44644701 -0.36457601 4.44594812 0.000000
-0.46436399 -0.38909200 4.46644497 0.000000
-0.48837799 -0.33977699 4.46757221 0.000000
-0.50251502 -0.33535799 4.47612619 0.000000
-0.49175701 -0.36135700 4.47687387 0.000000
-0.37489599 -0.39982501 4.61355114 0.000000
-0.35130900 -0.34093300 4.62173223 0.000000
-0.39455000 -0.35686699 4.63803482 0.000000
-0.35632300 -0.36773199 4.61513615 0.000000
-0.37167600 -0.34456199 4.63072920 0.000000
0.32961601 0.14323100 3.77747393 0.000000
0.31644899 0.12764600 3.79625607 0.000000
0.37537301 0.13738599 3.79387903 0.000000
0.50197101 0.13306899 3.99151993 0.000000
0.49612001 0.13107900 3.98314190 0.000000
0.51817799 0.14582600 3.98700500 0.000000
0.36417201 0.12720200 3.80416894 0.000000
0.35589299 0.11487500 3.81609201 0.000000
0.33082801 0.11019400 3.81931305 0.000000
0.47465000 0.11110600 3.97492409 0.000000
0.48421401 0.11806500 3.99396992 0.000000
0.48241001 0.11604300 3.99491501 0.000000
0.48229501 0.12368200 3.94536209 0.000000
0.47981700 0.11317400 3.99602604 0.000000
0.47242299 0.27702799 3.62956810 0.000000
0.70096499 0.30212599 3.90750909 0.000000
0.49171001 0.29523599 3.63143110 0.000000
0.70763898 0.31044701 3.90900803 0.000000
0.71229601 0.32419801 3.90269709 0.000000
-0.01461800 0.33531201 4.45038891 0.000000
-0.01760300 0.29448101 4.09826803 0.000000
-0.03591700 0.35194001 4.45797682 0.000000
-0.00607400 0.37189800 4.05937910 0.000000
-0.02344200 0.41753000 4.48221207 0.000000
-0.02123200 0.46021199 4.49145889 0.000000
0.00255200 0.23142800 4.40360880 0.000000
-0.02710500 0.19190100 4.12435198 0.000000
-0.02531500 0.18311200 4.12060881 0.000000
-0.02227800 0.25762501 4.41881084 0.000000
0.46617600 0.09531700 4.01610088 0.000000
0.45798099 0.08560300 4.02046108 0.000000
0.43972901 0.08753000 3.98776007 0.000000
0.43726999 0.08556700 3.97923708 0.000000
0.45051599 0.09408800 3.98427296 0.000000
0.01044600 0.47059700 4.02452421 0.000000
-0.05532700 0.49456000 4.51101303 0.000000
-0.06062800 0.51955098 4.51657486 0.000000
-0.06845500 0.55401802 4.52639723 0.000000
-0.39741799 -0.14813100 4.42902613 0.000000
-0.31474400 -0.15030199 4.58060884 0.000000
-0.32499501 -0.15260300 4.58365822 0.000000
-0.42126900 -0.16700500 4.44303799 0.000000
-0.44968799 -0.16653700 4.48424816 0.000000
-0.46229601 -0.17123200 4.49728918 0.000000
-0.34743300 -0.18610200 4.60378504 0.000000
-0.35304201 -0.18069600 4.60212517 0.000000
-0.31872600 -0.17764400 4.59391689 0.000000
-0.50178802 -0.47852001 4.53395605 0.000000
-0.48277000 -0.46514100 4.51548195 0.000000
-0.48362300 -0.47312400 4.52119923 0.000000
-0.45412299 -0.46242300 4.49919891 0.000000
-0.47364399 -0.43933699 4.49378490 0.000000
-0.49297899 -0.47901800 4.52983189 0.000000
-0.46537101 -0.48509401 4.61625719 0.000000
-0.38299099 -0.46037501 4.57823277 0.000000
-0.40288401 -0.47885099 4.57680178 0.000000
-0.37249801 -0.42811799 4.59808683 0.000000
-0.44117501 -0.47442099 4.60798407 0.000000
-0.50514102 -0.42129800 4.50341702 0.000000
-0.52076900 -0.42618099 4.51595688 0.000000
-0.50710899 -0.41905901 4.50345421 0.000000
-0.50610101 -0.43830800 4.51320982 0.000000
-0.50039703 -0.43682399 4.50879383 0.000000
-0.53012502 -0.40516701 4.51053810 0.000000
-0.50768101 -0.41725901 4.50284386 0.000000
-0.45030800 -0.47107300 4.61711311 0.000000
-0.40566000 -0.42876300 4.61856890 0.000000
-0.43394500 -0.42387101 4.63826084 0.000000
-0.45721599 -0.47683999 4.61739397 0.000000
-0.42736501 -0.45699400 4.61287785 0.000000
-0.39833701 -0.41823301 4.62114286 0.000000
-0.50748801 -0.56813699 4.57079983 0.000000
-0.52339101 -0.57525200 4.58805704 0.000000
-0.50371701 -0.57160598 4.57284117 0.000000
-0.49888000 -0.58045602 4.58816624 0.000000
-0.52681500 -0.58277702 4.60397291 0.000000
-0.44839400 -0.54372400 4.52576208 0.000000
-0.45394900 -0.56646901 4.54501200 0.000000
-0.44962001 -0.55047500 4.53128195 0.000000
-0.45664099 -0.56500101 4.57449198 0.000000
-0.46861300 -0.56677097 4.58230782 0.000000
-0.45256701 -0.57157701 4.56542301 0.000000
-0.46102500 -0.55578601 4.58616114 0.000000
-0.43396801 -0.28759199 4.41969681 0.000000
-0.44151700 -0.30055100 4.42819500 0.000000
-0.46159101 -0.30630299 4.44676495 0.000000
-0.43803999 -0.31865501 4.42765713 0.000000
-0.31743199 -0.28121400 4.61548615 0.000000
-0.33812600 -0.30348200 4.61965609 0.000000
-0.33381799 -0.28570899 4.62072992 0.000000
-0.33475301 -0.27970099 4.62195587 0.000000
-0.34298399 -0.30615401 4.62101316 0.000000
-0.47871000 -0.29885101 4.46030188 0.000000
-0.46462500 -0.32268399 4.44876385 0.000000
-0.47334200 -0.32100201 4.45518780 0.000000
-0.49255401 -0.31825399 4.46929407 0.000000
-0.39964101 -0.32897899 4.64667416 0.000000
-0.34579700 -0.33428901 4.62079716 0.000000
-0.40624899 -0.32932901 4.64987087 0.000000
-0.40633100 -0.09876500 4.55451298 0.000000
-0.42792001 -0.10532900 4.52801085 0.000000
-0.43936199 -0.11527300 4.53598499 0.000000
-0.41424000 -0.11376700 4.57006979 0.000000
-0.41091299 -0.10264600 4.55841017 0.000000
-0.40780801 -0.17709200 4.41896009 0.000000
-0.41844699 -0.17048401 4.43686008 0.000000
-0.39303201 -0.15661199 4.41592789 0.000000
-0.32586199 -0.18285000 4.59792519 0.000000
-0.30473799 -0.20037900 4.60065794 0.000000
-0.33105701 -0.19998901 4.60638618 0.000000
-0.43601301 -0.20842300 4.43191004 0.000000
-0.47819000 -0.22613500 4.47245312 0.000000
-0.36082700 -0.21409599 4.61811113 0.000000
-0.36597601 -0.21242701 4.61866999 0.000000
-0.34841400 -0.20497300 4.61229181 0.000000
-0.43219501 -0.13762100 4.48256302 0.000000
-0.38596201 -0.14095300 4.59037399 0.000000
-0.38770100 -0.16167501 4.59999180 0.000000
-0.35385799 -0.14902300 4.58776617 0.000000
-0.41920000 -0.10448900 4.50396204 0.000000
-0.44329801 -0.12051700 4.52867413 0.000000
-0.43201199 -0.11474700 4.51551485 0.000000
-0.43304500 -0.12176300 4.50296783 0.000000
-0.43246001 -0.11798700 4.51015091 0.000000
-0.39178601 -0.13551401 4.58788013 0.000000
-0.38181901 -0.12071400 4.57530022 0.000000
-0.45521799 -0.51848799 4.52142906 0.000000
-0.43521100 -0.49623400 4.50523186 0.000000
-0.44955301 -0.52672303 4.52040577 0.000000
-0.49398899 -0.49818900 4.53726482 0.000000
-0.40823299 -0.51298302 4.56763220 0.000000
-0.45025599 -0.50756299 4.59716511 0.000000
-0.43729800 -0.50414300 4.58963823 0.000000
-0.39866200 -0.50591701 4.56348181 0.000000
-0.48212799 -0.54448903 4.54420280 0.000000
-0.49490499 -0.50294399 4.53894091 0.000000
-0.45245200 -0.52808398 4.52237415 0.000000
-0.50546497 -0.55005699 4.55915689 0.000000
-0.47110501 -0.54153800 4.53704214 0.000000
-0.49409601 -0.54908401 4.55239582 0.000000
-0.44392499 -0.53375000 4.58426523 0.000000
-0.46549201 -0.52493203 4.60113716 0.000000
-0.49605200 -0.56092101 4.60867882 0.000000
-0.42632300 -0.52979898 4.57425785 0.000000
-0.42995501 -0.53492200 4.57486916 0.000000
-0.47396800 -0.55514997 4.59639788 0.000000
-0.40619501 -0.21432000 4.40024996 0.000000
-0.41696599 -0.24569200 4.40370989 0.000000
-0.41479799 -0.24614300 4.40172720 0.000000
-0.27691299 -0.21276499 4.59732294 0.000000
-0.29217601 -0.24669100 4.60668278 0.000000
-0.27082500 -0.22243400 4.59581804 0.000000
-0.23683000 -0.22398300 4.58237600 0.000000
-0.38548300 -0.18234099 4.38676119 0.000000
-0.39385700 -0.36677501 4.42470598 0.000000
-0.37021601 -0.37833899 4.41957712 0.000000
-0.41050199 -0.37459800 4.43445778 0.000000
-0.41655099 -0.39753100 4.44572783 0.000000
-0.40881500 -0.39040801 4.43985510 0.000000
-0.43016601 -0.39003801 4.44836092 0.000000
-0.29084101 -0.38247201 4.55890179 0.000000
-0.30380201 -0.37459701 4.57358980 0.000000
-0.29900199 -0.35336700 4.58057117 0.000000
-0.31402299 -0.38373700 4.57727623 0.000000
-0.28506801 -0.37309101 4.55899000 0.000000
-0.32265601 -0.37993500 4.58631611 0.000000
-0.30772600 -0.39033201 4.56871605 0.000000
-0.37823299 -0.34690699 4.40992308 0.000000
-0.38183501 -0.35192701 4.41381693 0.000000
-0.40133899 -0.33218101 4.41333389 0.000000
-0.37388200 -0.34652001 4.40782785 0.000000
-0.35782799 -0.35284200 4.40366220 0.000000
-0.25917399 -0.31933701 4.56961203 0.000000
-0.24674401 -0.30863500 4.56631708 0.000000
-0.26796901 -0.35316700 4.55652094 0.000000
-0.25240999 -0.35063601 4.54601717 0.000000
-0.27758899 -0.32680100 4.57942009 0.000000
-0.25428200 -0.32378501 4.56322908 0.000000
-0.58760703 -0.26136401 4.52217007 0.000000
-0.58004999 -0.24614200 4.51966190 0.000000
-0.45414099 -0.28494799 4.69826221 0.000000
-0.60739499 -0.22753400 4.54523420 0.000000
-0.63619000 -0.23956500 4.56835794 0.000000
-0.51186901 -0.26368800 4.74862385 0.000000
-0.62513101 -0.33850199 4.54541922 0.000000
-0.48608100 -0.33510199 4.72408009 0.000000
-0.61448997 -0.34273401 4.53489494 0.000000
-0.48178101 -0.35459000 4.72188711 0.000000
-0.65810800 -0.30371901 4.57720089 0.000000
-0.52245897 -0.31036901 4.75505114 0.000000
-0.67100197 -0.30024901 4.58974504 0.000000
-0.50646901 -0.17508700 4.56575108 0.000000
-0.46178001 -0.17203200 4.61155701 0.000000
-0.54444802 -0.15961000 4.61342001 0.000000
-0.52674800 -0.18848400 4.55189705 0.000000
-0.52403897 -0.18743899 4.55195808 0.000000
-0.56148100 -0.17756601 4.56449986 0.000000
-0.57539099 -0.17590800 4.56773806 0.000000
-0.65728003 -0.39104700 4.55600405 0.000000
-0.65532100 -0.39205101 4.54466486 0.000000
-0.49771401 -0.40884301 4.74295521 0.000000
-0.69678003 -0.34697300 4.60210705 0.000000
-0.56089902 -0.39493299 4.77313519 0.000000
-0.71336198 -0.36792600 4.61348200 0.000000
-0.57261300 -0.39520401 4.78076982 0.000000
-0.65508002 -0.51611602 4.68188810 0.000000
-0.66037297 -0.52324402 4.67670822 0.000000
-0.51648998 -0.18094300 4.56252813 0.000000
-0.45422101 -0.18386801 4.62236500 0.000000
-0.49094099 -0.17995900 4.66005993 0.000000
-0.65741998 -0.47787401 4.64488220 0.000000
-0.65043497 -0.48124000 4.62803078 0.000000
-0.58333898 -0.48184100 4.71102715 0.000000
-0.65058601 -0.48476401 4.63222599 0.000000
-0.57776201 -0.50132602 4.70019722 0.000000
-0.57715702 -0.49440300 4.70272684 0.000000
-0.70071501 -0.41570401 4.66029215 0.000000
-0.62963301 -0.43453401 4.75002909 0.000000
-0.70398903 -0.40530300 4.68355703 0.000000
-0.65102398 -0.41756201 4.75229406 0.000000
-0.44890699 -0.22469600 4.67567205 0.000000
-0.54231101 -0.21839100 4.52224207 0.000000
-0.58253598 -0.17457600 4.57296085 0.000000
-0.49896199 -0.18297701 4.69378901 0.000000
-0.49741501 -0.19489500 4.70865393 0.000000
-0.64251000 -0.36369601 4.55051279 0.000000
-0.49241599 -0.39290100 4.73891401 0.000000
-0.49252900 -0.37355599 4.73120499 0.000000
-0.68209499 -0.32861099 4.59273720 0.000000
-0.54313999 -0.36901900 4.76596022 0.000000
-0.56153601 -0.36072800 4.78013277 0.000000
-0.61182302 -0.30269799 4.53760910 0.000000
-0.47259301 -0.31338000 4.71180582 0.000000
-0.59029299 -0.30638099 4.52427912 0.000000
-0.64134401 -0.28290701 4.56321907 0.000000
-0.49898699 -0.27211699 4.74043798 0.000000
-0.65339702 -0.28001899 4.57630682 0.000000
-0.51578301 -0.27602601 4.75130510 0.000000
-0.66539699 -0.51079297 4.67342710 0.000000
-0.63272798 -0.49496701 4.70437908 0.000000
-0.65352798 -0.53738600 4.65695477 0.000000
-0.65731001 -0.51626301 4.66147184 0.000000
-0.62558198 -0.51414698 4.69707203 0.000000
-0.68209702 -0.43650401 4.68795395 0.000000
-0.69388002 -0.41298899 4.69889021 0.000000
-0.65619999 -0.43489099 4.73319197 0.000000
-0.58498001 -0.40648699 4.78420591 0.000000
-0.59710902 -0.40563101 4.78962612 0.000000
-0.66383499 -0.41168001 4.55129623 0.000000
-0.52865100 -0.42959800 4.74702597 0.000000
-0.66577601 -0.42597899 4.56364584 0.000000
-0.66597903 -0.42760700 4.56514502 0.000000
-0.52517498 -0.45653501 4.74542999 0.000000
-0.71487898 -0.39853400 4.63415384 0.000000
-0.60137999 -0.42591801 4.77164316 0.000000
-0.68800098 -0.42874801 4.64386177 0.000000
-0.62462699 -0.42209899 4.76918316 0.000000
-0.66551799 -0.43988401 4.60308313 0.000000
-0.57765698 -0.47323799 4.72235823 0.000000
-0.56366700 -0.47720900 4.72747612 0.000000
-0.65709603 -0.46333599 4.60222578 0.000000
-0.54001802 -0.48412099 4.73400211 0.000000
-0.57493001 -0.24628200 4.51710987 0.000000
-0.45332101 -0.25737301 4.69754887 0.000000
-0.44327900 -0.25463101 4.68112707 0.000000
-0.60040498 -0.21484400 4.54571486 0.000000
-0.61675900 -0.20661201 4.56351995 0.000000
-0.49490100 -0.21934600 4.72502518 0.000000
-0.70281702 -0.18920200 4.67729807 0.000000
-0.60511500 -0.20572700 4.79045010 0.000000
-0.70611501 -0.17634100 4.68589115 0.000000
-0.60076201 -0.19595800 4.78669500 0.000000
-0.60256302 -0.15509599 4.77770710 0.000000
-0.60505599 -0.14230500 4.77312994 0.000000
-0.60546702 -0.25564301 4.79452991 0.000000
-0.71161598 -0.20926701 4.68019581 0.000000
-0.62826598 -0.20952500 4.80526400 0.000000
-0.76570898 -0.21860100 4.80919981 0.000000
-0.23903701 -0.41538301 4.41277409 0.000000
-0.21975800 -0.41545901 4.42247486 0.000000
-0.20379800 -0.40882999 4.40115786 0.000000
-0.19438700 -0.41896001 4.41994190 0.000000
-0.67175502 -0.40587199 4.74283314 0.000000
-0.68375099 -0.38898799 4.74312687 0.000000
-0.63021201 -0.11929100 4.74206686 0.000000
-0.61559099 -0.12630300 4.73394394 0.000000
-0.67624497 -0.09375900 4.77174711 0.000000
-0.67536801 -0.09362400 4.77513504 0.000000
-0.65423602 -0.10316700 4.78182983 0.000000
-0.54409301 -0.24926700 4.59844112 0.000000
-0.52632397 -0.21863100 4.59906197 0.000000
-0.50200099 -0.21933299 4.63129282 0.000000
-0.53901398 -0.25613901 4.60827017 0.000000
-0.52799302 -0.24791101 4.61582279 0.000000
-0.52228999 -0.26627901 4.63799000 0.000000
-0.51370502 -0.23508900 4.62860823 0.000000
-0.59908098 -0.14024600 4.66769695 0.000000
-0.55093497 -0.15404500 4.67618513 0.000000
-0.57854599 -0.14397800 4.67288589 0.000000
-0.69037902 -0.41179600 4.70734119 0.000000
-0.67038101 -0.42338401 4.72291183 0.000000
-0.66320503 -0.43980300 4.70785713 0.000000
-0.48922101 -0.16610099 4.57709408 0.000000
-0.48606601 -0.17088500 4.61404085 0.000000
-0.55318499 -0.16505601 4.63753319 0.000000
-0.54512399 -0.17133901 4.62067986 0.000000
-0.52512997 -0.17954700 4.61383009 0.000000
-0.54719597 -0.17141800 4.61698198 0.000000
-0.59976900 -0.13404600 4.72567701 0.000000
-0.51318699 -0.18003900 4.63919020 0.000000
-0.58438200 -0.14262700 4.70725298 0.000000
-0.60790801 -0.13468100 4.70017815 0.000000
-0.56419402 -0.15787400 4.65573597 0.000000
-0.61468297 -0.13029800 4.71252298 0.000000
-0.59992200 -0.13683499 4.70632792 0.000000
-0.57814997 -0.14642900 4.69750977 0.000000
-0.59824997 -0.13239700 4.72267914 0.000000
-0.60037100 -0.13861699 4.67378092 0.000000
-0.59766001 -0.13258900 4.70897484 0.000000
-0.74564999 -0.06304700 4.82146406 0.000000
-0.45620900 -0.13650700 4.55979586 0.000000
-0.42858601 -0.13135201 4.58253479 0.000000
-0.44374400 -0.12271000 4.56307220 0.000000
-0.73008698 -0.16076100 4.86659098 0.000000
-0.77083200 -0.08737300 4.81883383 0.000000
-0.75198102 -0.06655700 4.76431417 0.000000
-0.77365500 -0.19300900 4.76434708 0.000000
-0.75641698 -0.17979500 4.73787689 0.000000
-0.78105700 -0.19099601 4.78848696 0.000000
-0.74177003 -0.18438400 4.85453606 0.000000
-0.64360601 -0.17695500 4.81779909 0.000000
-0.70562798 -0.16089401 4.69025803 0.000000
-0.62555498 -0.17357600 4.80393219 0.000000
-0.73188901 -0.16542800 4.71263790 0.000000
-0.65448600 -0.17768300 4.82469606 0.000000
-0.78317499 -0.12887900 4.76590776 0.000000
-0.78289902 -0.10929500 4.77951097 0.000000
-0.77213901 -0.13078900 4.75346899 0.000000
-0.69227600 -0.13771400 4.85720301 0.000000
-0.71282399 -0.07863500 4.85058689 0.000000
-0.76512802 -0.08075000 4.77078915 0.000000
-0.76342100 -0.07045200 4.79531288 0.000000
-0.68960100 -0.12252000 4.85485315 0.000000
-0.75510502 -0.14632900 4.73667622 0.000000
-0.75723201 -0.15756001 4.73710918 0.000000
-0.71991098 -0.18026100 4.69892311 0.000000
-0.72020400 -0.19273201 4.69661808 0.000000
-0.71734798 -0.25437000 4.67944622 0.000000
-0.72395802 -0.22343500 4.69508219 0.000000
-0.62086201 -0.27376699 4.79631901 0.000000
-0.63288099 -0.36593401 4.79637194 0.000000
-0.72452998 -0.32585201 4.69540119 0.000000
-0.68032598 -0.22892299 4.82227421 0.000000
-0.63945502 -0.31340301 4.78936481 0.000000
-0.73566598 -0.23943900 4.71768618 0.000000
-0.66111898 -0.27167401 4.80218792 0.000000
-0.66223598 -0.20548201 4.82275915 0.000000
-0.73962402 -0.18495500 4.71983290 0.000000
-0.71678001 -0.05450600 4.81547499 0.000000
0.04026000 0.65563798 4.57736588 0.000000
-0.03795200 0.55601102 3.90495706 0.000000
-0.02212300 0.70667601 4.56329823 0.000000
-0.03825700 0.68416500 4.55234194 0.000000
-0.01451300 0.62160200 4.59037304 0.000000
-0.03695500 0.57413900 3.98203111 0.000000
0.52761799 0.58276802 3.57644796 0.000000
0.54698902 0.54935598 3.55179405 0.000000
-0.00081100 0.52327698 4.00832701 0.000000
-0.00100300 0.55388403 4.00088406 0.000000
0.77484101 0.58840799 3.88089705 0.000000
0.56832600 0.50550699 3.51379108 0.000000
0.82261097 0.52236199 3.80600405 0.000000
0.80264097 0.54503101 3.82270908 0.000000
0.79737097 0.55148602 3.82771492 0.000000
0.87969500 0.57494700 3.88463497 0.000000
0.53866601 0.55087602 3.56089211 0.000000
0.45077300 0.15008500 3.58601403 0.000000
0.72206497 0.15620100 3.90080595 0.000000
0.70578098 0.13176300 3.88276410 0.000000
0.42891401 0.14849900 3.58775401 0.000000
0.43188700 0.12558600 3.59873891 0.000000
0.71273202 0.14125600 3.91266990 0.000000
0.42202601 0.16737700 3.59036112 0.000000
0.42110899 0.15831301 3.59012198 0.000000
0.71422601 0.15756400 3.94485688 0.000000
0.38410801 0.14794999 3.61124611 0.000000
0.38497299 0.15482900 3.61104989 0.000000
0.71050799 0.16940901 3.95547605 0.000000
0.69541502 0.16748901 3.96774411 0.000000
0.19864599 -0.02748100 3.81595612 0.000000
0.24847800 0.07159800 3.86866999 0.000000
0.28361201 0.07950100 3.90524793 0.000000
0.51040000 0.05560400 4.07273006 0.000000
0.56671703 0.06710400 4.05028105 0.000000
0.55445999 0.06775000 4.05409098 0.000000
0.51124698 0.05823800 4.07155085 0.000000
0.50900602 0.08547900 4.05989599 0.000000
0.48093700 0.07628200 4.06219387 0.000000
0.32011899 0.14944400 3.69266701 0.000000
0.30787301 0.13139400 3.68932295 0.000000
0.59427798 0.14990200 4.01352406 0.000000
0.59649199 0.13613500 4.01733494 0.000000
0.33381999 0.15316500 3.66941500 0.000000
0.34626201 0.15221401 3.64574409 0.000000
0.63088298 0.15043201 4.00335884 0.000000
0.62551898 0.15462400 4.00460577 0.000000
0.42711899 0.22056900 3.67425704 0.000000
0.42798701 0.21580000 3.68405294 0.000000
0.64249200 0.23629799 3.93418193 0.000000
0.40618899 0.21184900 3.68025899 0.000000
0.64417499 0.22987700 3.94827795 0.000000
0.40517399 0.18723799 3.72333908 0.000000
0.42870501 0.16903800 3.73131490 0.000000
0.58943599 0.20017201 3.93054891 0.000000
0.42780900 0.18265800 3.71878910 0.000000
0.42763901 0.20001499 3.70306802 0.000000
0.60276300 0.20871200 3.92833495 0.000000
0.41390401 0.20104200 3.60161710 0.000000
0.71259803 0.18942600 3.95723891 0.000000
0.70839101 0.20419900 3.95457602 0.000000
0.39336300 0.19645600 3.62373304 0.000000
0.67957902 0.19757500 3.97052789 0.000000
0.49894199 0.16076200 3.68359709 0.000000
0.49102500 0.13942800 3.68636107 0.000000
0.62535501 0.18312301 3.85412908 0.000000
0.64780998 0.16190900 3.84236598 0.000000
0.49660400 0.13241500 3.66261792 0.000000
0.49594900 0.12599000 3.65920496 0.000000
0.66236401 0.17806999 3.83865404 0.000000
0.65822601 0.17615300 3.84006405 0.000000
0.65745401 0.18272001 3.84123802 0.000000
0.54370898 0.16028300 3.58819008 0.000000
0.71889001 0.19073200 3.81968498 0.000000
0.51867402 0.14014700 3.60399795 0.000000
0.51030499 0.16294999 3.57489896 0.000000
0.73880702 0.18664800 3.83263898 0.000000
0.50407898 0.15640099 3.57899594 0.000000
0.72675300 0.16680799 3.85169601 0.000000
0.47501400 0.15762299 3.70716596 0.000000
0.44842100 0.15903001 3.72482300 0.000000
0.60697597 0.20643900 3.89440298 0.000000
0.59860700 0.19806500 3.89804292 0.000000
0.46741101 0.18840800 3.70082998 0.000000
0.62753099 0.19719701 3.86018300 0.000000
0.62066299 0.21917900 3.88806009 0.000000
0.46200800 0.16945900 3.57386398 0.000000
0.74851102 0.19292399 3.87720203 0.000000
0.73642403 0.17662001 3.89986801 0.000000
0.46520001 0.15668900 3.58102608 0.000000
0.73038000 0.16923100 3.88254309 0.000000
0.73061001 0.16979800 3.87181497 0.000000
0.43674201 0.17556600 3.58182502 0.000000
0.73354697 0.19187500 3.92317009 0.000000
0.42183900 0.18276399 3.58923697 0.000000
0.72884297 0.19162799 3.93173695 0.000000
0.73125100 0.18576300 3.92289209 0.000000
0.43439600 0.23783299 3.63274002 0.000000
0.68267602 0.25763801 3.93310905 0.000000
0.42559001 0.23228300 3.64446402 0.000000
0.66270697 0.23349901 3.95186496 0.000000
0.50184900 0.22167601 3.67065597 0.000000
0.47490501 0.22875001 3.67148590 0.000000
0.65087700 0.25207400 3.88605189 0.000000
0.55597198 0.19345900 3.60700107 0.000000
0.71936202 0.23415700 3.80844688 0.000000
0.54188198 0.20554100 3.63931203 0.000000
0.69258702 0.23511800 3.82330108 0.000000
0.75038999 0.22933200 3.91633511 0.000000
0.42979801 0.21138901 3.59178305 0.000000
0.71543097 0.22535600 3.94331408 0.000000
0.52588499 0.17954600 3.56227207 0.000000
0.76791102 0.21958700 3.86036611 0.000000
0.50366902 0.17160700 3.56932211 0.000000
0.75801998 0.20601200 3.87078309 0.000000
0.56099200 0.17789300 3.57043910 0.000000
0.51495701 0.16427900 3.57459211 0.000000
0.74316901 0.19314501 3.82568693 0.000000
0.54456300 0.21072200 3.63778591 0.000000
0.51278698 0.20580401 3.66527700 0.000000
0.67169499 0.24457701 3.83936906 0.000000
0.44311699 0.24259700 3.64739990 0.000000
0.66378999 0.25908199 3.91228390 0.000000
0.42871699 0.22817500 3.66180706 0.000000
0.66028798 0.24684501 3.93346596 0.000000
0.76334298 0.22037800 3.88604689 0.000000
0.45910800 0.19481599 3.56727695 0.000000
-0.72629100 -0.28198400 4.70689297 0.000000
-0.65402102 -0.29963100 4.79268789 0.000000
-0.74521601 -0.24191301 4.73827410 0.000000
-0.73619699 -0.23421700 4.71746683 0.000000
-0.71736401 -0.30962801 4.67773199 0.000000
-0.69370902 -0.53719801 4.46546078 0.000000
-0.48475099 -0.58189601 4.77470016 0.000000
-0.49110201 -0.57963401 4.77794695 0.000000
-0.47564900 -0.58751500 4.77603292 0.000000
-0.71164602 -0.50280303 4.45916796 0.000000
-0.45914799 -0.56875598 4.81090593 0.000000
-0.70247698 -0.49199101 4.46272421 0.000000
-0.44791201 -0.55697501 4.80799580 0.000000
-0.69738102 -0.48659399 4.38852978 0.000000
-0.70987600 -0.48991200 4.38223410 0.000000
-0.61176699 -0.38775799 4.53767586 0.000000
-0.48662901 -0.41602001 4.70726919 0.000000
-0.49130800 -0.43458301 4.71130610 0.000000
-0.70337099 -0.07364000 4.79290390 0.000000
-0.69895798 -0.07294900 4.77315187 0.000000
-0.68157601 -0.07838600 4.80348682 0.000000
-0.65448302 -0.49406299 4.70174789 0.000000
-0.66969401 -0.46559000 4.69131994 0.000000
-0.65645701 -0.46736300 4.71331215 0.000000
0.02542100 0.71755302 4.57078886 0.000000
-0.03636000 0.70323402 4.51620913 0.000000
-0.01968600 0.57044399 3.88295698 0.000000
-0.01397100 0.72440600 4.55415392 0.000000
0.47718799 0.60505402 3.57822609 0.000000
0.48220801 0.58454001 3.57972288 0.000000
0.88310403 0.61056298 3.90372801 0.000000
0.88622200 0.61627501 3.90173197 0.000000
0.83350402 0.60163498 3.93261790 0.000000
0.45368600 0.58723199 3.56356597 0.000000
0.44555700 0.60502201 3.55284500 0.000000
0.79741502 0.60617799 3.92708611 0.000000
-0.78114402 -0.16739100 4.76007986 0.000000
-0.69170898 -0.18009000 4.84788179 0.000000
-0.78318298 -0.15302899 4.76061392 0.000000
-0.69731897 -0.14177500 4.86030006 0.000000
-0.48230299 -0.38380000 4.69916821 0.000000
-0.46660900 -0.44760901 4.73582983 0.000000
-0.47005200 -0.43779701 4.72065115 0.000000
-0.45800000 -0.47057700 4.73827791 0.000000
-0.45402500 -0.47603500 4.76167011 0.000000
-0.64016098 -0.46367300 4.45934105 0.000000
-0.42942199 -0.50278097 4.75609779 0.000000
-0.42974499 -0.50330102 4.75537586 0.000000
-0.63834000 -0.44322500 4.48498106 0.000000
-0.46094400 -0.47520000 4.73657608 0.000000
-0.45502299 -0.49340999 4.72329187 0.000000
-0.39635900 -0.56798798 4.82962894 0.000000
-0.39759699 -0.57152098 4.83396196 0.000000
-0.70818102 -0.45596600 4.41316605 0.000000
-0.71967101 -0.50150901 4.37727404 0.000000
-0.40530601 -0.57116097 4.83629179 0.000000
-0.41111600 -0.55279303 4.82862997 0.000000
-0.48268199 -0.59086001 4.79759598 0.000000
-0.47799799 -0.59455597 4.79949093 0.000000
-0.71132702 -0.51049101 4.50117922 0.000000
-0.72076303 -0.51895398 4.48653412 0.000000
-0.49825001 -0.53716397 4.78442001 0.000000
-0.73428398 -0.08562400 4.85022402 0.000000
-0.72487497 -0.06607600 4.83770323 0.000000
-0.61384600 -0.37381101 4.80070305 0.000000
-0.71458900 -0.29957199 4.66220903 0.000000
-0.78253001 -0.17247801 4.82825089 0.000000
-0.53405601 -0.56748903 4.58416319 0.000000
-0.55279398 -0.57556099 4.60009909 0.000000
-0.54647100 -0.56590599 4.63510323 0.000000
-0.53726500 -0.57682002 4.61599922 0.000000
-0.55689502 -0.15109199 4.65973902 0.000000
-0.52930701 -0.15673700 4.64880514 0.000000
-0.50808102 -0.16839400 4.60729313 0.000000
-0.52763098 -0.15766799 4.64742613 0.000000
-0.71670198 -0.31211299 4.77492619 0.000000
-0.72746801 -0.28611299 4.78653193 0.000000
-0.73504800 -0.27339199 4.79099321 0.000000
-0.74466801 -0.25334200 4.80066490 0.000000
0.04598100 0.69106698 4.56425381 0.000000
-0.05067400 0.61012399 3.91641688 0.000000
-0.01848300 0.67833799 4.57320499 0.000000
-0.05107200 0.49374300 4.00272989 0.000000
-0.02776500 0.71407902 4.52203989 0.000000
-0.04190500 0.67821902 4.54661894 0.000000
-0.06598300 0.58527398 4.57062101 0.000000
-0.03094700 0.49763000 3.93850994 0.000000
0.02866900 0.61626399 4.57266092 0.000000
-0.04231600 0.53854901 4.59115124 0.000000
-0.05250300 0.48212701 4.57659912 0.000000
-0.04729000 0.55848300 4.58711815 0.000000
-0.05506100 0.48210001 3.99762201 0.000000
-0.06045200 0.54452002 4.58175087 0.000000
-0.06607300 0.43978399 4.02541304 0.000000
-0.06789300 0.43109399 4.03464603 0.000000
-0.05974100 0.47932199 4.56876183 0.000000
0.00625500 0.55203199 3.99955106 0.000000
-0.03740600 0.63028699 4.49804497 0.000000
-0.00071200 0.56733000 3.99855995 0.000000
0.01116600 0.52820098 3.90073895 0.000000
0.01955200 0.59359199 4.56862497 0.000000
-0.05022200 0.56462997 3.96134400 0.000000
-0.02874900 0.52398503 3.92178607 0.000000
-0.02954600 0.65232700 4.57571316 0.000000
-0.04107300 0.66754299 4.49945402 0.000000
-0.05099800 0.65443403 4.51968908 0.000000
-0.04489700 0.66039300 4.50631523 0.000000
-0.01651700 0.58712000 4.51836109 0.000000
-0.04794100 0.38509300 3.99885011 0.000000
-0.07273700 0.34345800 4.02654219 0.000000
0.00408700 0.41870701 4.54481983 0.000000
-0.07236100 0.41475299 4.04953718 0.000000
-0.06728900 0.44508499 4.55563307 0.000000
-0.09373400 0.37484899 4.06618786 0.000000
-0.06275400 0.40530401 4.55601311 0.000000
0.00387100 0.38393000 4.03584099 0.000000
-0.00661300 0.42684001 4.48959398 0.000000
-0.00153600 0.36874199 4.04612398 0.000000
-0.00061200 0.41776401 4.04757023 0.000000
-0.03575100 0.47684401 4.49770689 0.000000
-0.00520600 0.41791999 4.05237103 0.000000
-0.05224500 0.44642800 4.49907780 0.000000
-0.08336200 0.38337600 4.03016520 0.000000
-0.03444500 0.42685601 4.56991482 0.000000
-0.08512700 0.35799101 4.03099012 0.000000
-0.01803300 0.42236999 4.56633711 0.000000
-0.10743800 0.33454999 4.06098795 0.000000
-0.10662100 0.34348100 4.07155704 0.000000
-0.05226700 0.34837899 4.55819702 0.000000
-0.09250600 0.34758201 4.10255384 0.000000
-0.07471700 0.33425999 4.53344011 0.000000
-0.06724800 0.36703700 4.10190678 0.000000
-0.04688400 0.33362699 4.02755117 0.000000
0.01567000 0.36338899 4.51071119 0.000000
0.00730200 0.40490800 4.52491999 0.000000
-0.06807200 0.38748899 4.01044321 0.000000
-0.07991100 0.35127699 4.02853012 0.000000
-0.00853000 0.40381500 4.55836105 0.000000
-0.00944300 0.38379401 4.00674009 0.000000
0.00804200 0.47378200 4.51960993 0.000000
0.00115700 0.44114599 4.50278378 0.000000
-0.03441700 0.36039200 4.01424599 0.000000
-0.02388100 0.35360700 4.02528381 0.000000
0.00727600 0.44756699 4.51766491 0.000000
-0.01280800 0.33191401 4.07719278 0.000000
-0.01119400 0.36806399 4.07042980 0.000000
-0.03636900 0.39285100 4.47466087 0.000000
-0.07420900 0.45737401 4.52547884 0.000000
-0.04055300 0.42131999 4.06637907 0.000000
-0.02618300 0.52041203 4.00423288 0.000000
-0.05685700 0.61105901 4.52145100 0.000000
-0.00947300 0.56790799 3.99615097 0.000000
-0.00639200 0.55802399 3.99926805 0.000000
-0.05907500 0.61833799 4.53158188 0.000000
-0.05435300 0.60055602 3.90904903 0.000000
-0.04172300 0.69077301 4.53424215 0.000000
-0.01059300 0.72803903 4.55416298 0.000000
-0.02585100 0.62635499 4.58505678 0.000000
0.00600500 0.71178102 4.57436895 0.000000
-0.04318500 0.59015900 3.89296389 0.000000
-0.03764900 0.67764902 4.56300306 0.000000
-0.06034900 0.60883200 4.56257105 0.000000
-0.01117700 0.61345500 4.58748293 0.000000
-0.05028800 0.53895199 3.95227599 0.000000
-0.04744400 0.63445598 4.56915283 0.000000
-0.04171200 0.55834401 3.90567589 0.000000
-0.05517300 0.60497898 3.94547296 0.000000
-0.02258700 0.51879501 3.91898799 0.000000
0.01534900 0.63330299 4.58351707 0.000000
-0.01108300 0.51029497 3.91782689 0.000000
0.00283200 0.57238603 3.87486506 0.000000
0.05006800 0.65223098 4.57007980 0.000000
-0.05775100 0.62929100 4.53447390 0.000000
-0.03168300 0.59668702 3.98081589 0.000000
-0.03645300 0.68782300 4.49750280 0.000000
-0.04397200 0.50716299 3.95045090 0.000000
-0.03605700 0.51530099 3.93745995 0.000000
-0.04601400 0.52318901 3.97466493 0.000000
-0.04516400 0.61199403 4.57668114 0.000000
-0.06560000 0.44046900 3.99911499 0.000000
-0.06831600 0.42943299 4.00696898 0.000000
-0.05755000 0.44303599 3.98580694 0.000000
-0.02864600 0.50471002 4.58260393 0.000000
-0.03152800 0.51680601 4.58604097 0.000000
-0.07260300 0.55107200 4.56593990 0.000000
-0.07308200 0.54250801 4.56146908 0.000000
-0.07308100 0.56552303 4.54953909 0.000000
-0.03400800 0.49061200 4.01944494 0.000000
-0.07285900 0.53988498 4.54634380 0.000000
-0.04696100 0.53790200 3.94660711 0.000000
0.03844900 0.51760203 3.92426705 0.000000
-0.03576900 0.64182103 3.94498110 0.000000
-0.01785700 0.61204201 3.88412189 0.000000
0.04198800 0.52452499 3.95828605 0.000000
0.04370000 0.54056698 3.95989704 0.000000
0.03769000 0.51606703 3.93881702 0.000000
-0.02814400 0.63217199 3.91455293 0.000000
0.02328400 0.58776402 3.99052596 0.000000
-0.02839100 0.61955100 4.51432896 0.000000
-0.01531800 0.72984397 4.53721094 0.000000
-0.02237700 0.71809798 4.51121998 0.000000
-0.00529800 0.62621301 4.51759386 0.000000
0.02799500 0.60761702 3.97015190 0.000000
0.00767600 0.68987799 4.49919796 0.000000
0.01776400 0.60409403 3.90498590 0.000000
0.05032000 0.62173098 4.53095579 0.000000
0.00994200 0.61812198 4.52607012 0.000000
0.01380200 0.59144300 3.87645793 0.000000
0.03413300 0.70628601 4.55289888 0.000000
-0.01839700 0.63170600 3.92412591 0.000000
-0.00257100 0.68949199 4.49223280 0.000000
0.00126200 0.63590801 3.96655393 0.000000
0.02926200 0.59039903 3.88677502 0.000000
0.03927700 0.57583600 3.97023797 0.000000
-0.02080800 0.65012401 4.49501181 0.000000
-0.01133500 0.65959197 4.49653387 0.000000
0.01288000 0.61915898 3.93596601 0.000000
0.04989600 0.66752702 4.52204514 0.000000
0.05698200 0.63826299 4.52755499 0.000000
0.03883300 0.56041598 3.94537711 0.000000
-0.00846800 0.69193202 4.48736715 0.000000
0.03216500 0.51731801 3.98939300 0.000000
0.02506800 0.53672999 3.99637103 0.000000
0.02182300 0.57453299 3.87419391 0.000000
0.02075500 0.72038800 4.55841017 0.000000
0.00676700 0.62856400 3.95307708 0.000000
-0.01787600 0.66905200 4.48388815 0.000000
0.01979200 0.61072302 3.92549706 0.000000
-0.02323200 0.62007999 3.89199710 0.000000
0.05390700 0.68605202 4.55500984 0.000000
-0.00400500 0.61731601 3.90856791 0.000000
-0.01324900 0.62538099 3.91575909 0.000000
0.01573300 0.59775102 3.88827991 0.000000
-0.00910300 0.60441703 3.88148594 0.000000
0.01013400 0.56995302 3.87513494 0.000000
0.03709700 0.55508798 3.88965988 0.000000
0.06632500 0.63808900 4.53158998 0.000000
0.02781200 0.61087799 4.53092718 0.000000
0.00740600 0.72061700 4.53892994 0.000000
-0.00250400 0.72101003 4.52458096 0.000000
0.01208200 0.50568801 4.01316786 0.000000
-0.03825500 0.58136201 4.51284695 0.000000
0.00757800 0.51828098 4.00908804 0.000000
0.00077600 0.50895298 4.01452684 0.000000
0.02272200 0.54477000 3.99654007 0.000000
0.01851300 0.50049299 4.01083803 0.000000
0.80688900 0.60362798 3.82527804 0.000000
0.80725902 0.63883197 3.84743309 0.000000
0.50470501 0.62223202 3.51075792 0.000000
0.52047300 0.59865898 3.46934891 0.000000
0.86736298 0.57577902 3.83664894 0.000000
0.51283699 0.60085601 3.46347594 0.000000
0.89634001 0.62518299 3.87692690 0.000000
0.45068499 0.63385898 3.50113297 0.000000
0.49128801 0.62221402 3.49461198 0.000000
0.45691001 0.64262098 3.53306890 0.000000
0.53091198 0.62449199 3.56529999 0.000000
0.80762100 0.65457398 3.88971400 0.000000
0.50715703 0.63719797 3.55914998 0.000000
0.86400199 0.64399600 3.90246797 0.000000
0.54981601 0.58791798 3.52840996 0.000000
0.53489399 0.62023699 3.54075503 0.000000
0.51930302 0.61006600 3.48560810 0.000000
0.87984800 0.59059501 3.84342909 0.000000
0.54855299 0.58170199 3.51873994 0.000000
0.88857901 0.62908298 3.87079692 0.000000
0.53600299 0.61733800 3.53428698 0.000000
0.52422398 0.60440201 3.48466897 0.000000
0.84846097 0.60097599 3.83171511 0.000000
0.54309303 0.60414600 3.52108192 0.000000
0.85622901 0.63476503 3.86298203 0.000000
0.47205299 0.63014799 3.50149608 0.000000
0.80925202 0.65943098 3.90749192 0.000000
0.48241901 0.61838102 3.47411203 0.000000
0.86944199 0.64382601 3.91132903 0.000000
0.44252700 0.63126701 3.50682712 0.000000
0.44782901 0.63839799 3.52250195 0.000000
0.80320501 0.65921301 3.92046809 0.000000
0.79689997 0.65826201 3.89936209 0.000000
0.85194999 0.63755900 3.87115502 0.000000
0.50314200 0.60936701 3.47379899 0.000000
0.49201000 0.64045799 3.57204604 0.000000
0.51234198 0.60250801 3.57969594 0.000000
0.77111101 0.60110497 3.86803603 0.000000
0.88424599 0.57443702 3.86109400 0.000000
0.48653701 0.59591299 3.45752406 0.000000
0.86861300 0.54390699 3.87059999 0.000000
0.48425201 0.60357797 3.45728207 0.000000
0.51724303 0.58399999 3.46080303 0.000000
0.53267300 0.50286698 3.48105907 0.000000
0.53562599 0.52152097 3.48401999 0.000000
0.53790498 0.55378801 3.48993611 0.000000
0.81253898 0.56556702 3.82473207 0.000000
0.55106598 0.57335299 3.53051901 0.000000
0.83931100 0.64913398 3.90162802 0.000000
0.82665497 0.64402401 3.87531805 0.000000
0.80484402 0.64532298 3.86358500 0.000000
0.53614199 0.61833900 3.56543207 0.000000
0.77946401 0.60337698 3.84280801 0.000000
0.79085302 0.61542702 3.83300495 0.000000
0.52710098 0.56810600 3.47384095 0.000000
-0.67721301 -0.09657700 4.83777380 0.000000
-0.66424000 -0.15552500 4.66161394 0.000000
-0.64917302 -0.14458300 4.66191816 0.000000
-0.57952499 -0.16312300 4.74992895 0.000000
-0.68210399 -0.09051900 4.83879900 0.000000
-0.71739799 -0.11326500 4.71608782 0.000000
-0.69620299 -0.12633701 4.69715309 0.000000
-0.68806899 -0.13616800 4.68671322 0.000000
-0.62162399 -0.14236100 4.79329300 0.000000
-0.60454100 -0.13583900 4.76690197 0.000000
-0.71307701 -0.10560400 4.71489811 0.000000
-0.69542301 -0.11778900 4.70105314 0.000000
-0.65735102 -0.09114800 4.82426119 0.000000
-0.72487497 -0.06923200 4.80837679 0.000000
-0.71788901 -0.06643800 4.81831217 0.000000
-0.64212799 -0.16208600 4.64622021 0.000000
-0.57103097 -0.16763601 4.74282789 0.000000
-0.56430298 -0.19240600 4.74559879 0.000000
-0.62656301 -0.15469900 4.64090204 0.000000
-0.55437201 -0.18255700 4.72813511 0.000000
-0.62683702 -0.21614100 4.63743687 0.000000
-0.55404103 -0.23463900 4.71250296 0.000000
-0.59712303 -0.23560800 4.60690212 0.000000
-0.57506001 -0.25543100 4.60583496 0.000000
-0.51938200 -0.26679000 4.66548920 0.000000
-0.63939101 -0.20068300 4.63325882 0.000000
-0.56621200 -0.20427500 4.74411678 0.000000
-0.52958697 -0.23775201 4.70555687 0.000000
-0.60174501 -0.23313300 4.64052820 0.000000
-0.62684900 -0.21742000 4.65339994 0.000000
-0.57513303 -0.25224000 4.62068415 0.000000
-0.58363199 -0.24047799 4.64135122 0.000000
-0.55202699 -0.24653000 4.69155598 0.000000
-0.57819402 -0.22591700 4.71804523 0.000000
-0.56315798 -0.23734900 4.70611000 0.000000
-0.54317802 -0.26371300 4.62204504 0.000000
-0.55703199 -0.26667100 4.60308886 0.000000
-0.56182998 -0.24266100 4.67051697 0.000000
-0.54333103 -0.25769600 4.64579916 0.000000
-0.54907203 -0.25315800 4.65228891 0.000000
-0.66108203 -0.18528000 4.65732002 0.000000
-0.64992702 -0.19426300 4.65603781 0.000000
-0.57682300 -0.22040901 4.73210812 0.000000
-0.65036500 -0.18472300 4.64445019 0.000000
-0.56650698 -0.21189199 4.74195004 0.000000
-0.64261401 -0.19512799 4.67807817 0.000000
-0.61901200 -0.18877700 4.72690678 0.000000
-0.59495801 -0.20728800 4.73904181 0.000000
-0.62584603 -0.21229701 4.66605186 0.000000
-0.60225201 -0.21175200 4.69609022 0.000000
-0.72449899 -0.13739499 4.72401524 0.000000
-0.67311198 -0.13229100 4.83114004 0.000000
-0.65605402 -0.14334700 4.82009697 0.000000
-0.71278203 -0.13785100 4.71223307 0.000000
-0.68731701 -0.14227600 4.68505287 0.000000
-0.62949902 -0.16029300 4.79636002 0.000000
-0.62086201 -0.15077700 4.79250288 0.000000
-0.67977703 -0.16305999 4.67706013 0.000000
-0.60408199 -0.17412999 4.77471685 0.000000
-0.61666298 -0.18129399 4.77963495 0.000000
-0.66714901 -0.18034500 4.68625498 0.000000
-0.64910197 -0.17207500 4.79284620 0.000000
-0.67148000 -0.17650600 4.69531488 0.000000
-0.67830497 -0.16304600 4.73283100 0.000000
-0.64163798 -0.17536899 4.75608015 0.000000
-0.64590502 -0.17291901 4.74774218 0.000000
-0.64003199 -0.17662901 4.77643013 0.000000
-0.65719098 -0.16808300 4.73394680 0.000000
-0.63638401 -0.17909101 4.72850800 0.000000
-0.62524498 -0.18575400 4.71926785 0.000000
-0.72271103 -0.10848000 4.79371214 0.000000
-0.71506900 -0.11940400 4.79622412 0.000000
-0.73580003 -0.08514800 4.78528976 0.000000
-0.70586199 -0.09100600 4.82439280 0.000000
-0.69705302 -0.12514099 4.81814623 0.000000
-0.68709397 -0.13168500 4.82268810 0.000000
-0.74398202 -0.09164500 4.76212120 0.000000
-0.68357402 -0.14019100 4.82162380 0.000000
-0.74302500 -0.10225700 4.75551987 0.000000
-0.74522197 -0.10275700 4.75026894 0.000000
-0.71702498 -0.14973700 4.72578382 0.000000
-0.66604197 -0.16264200 4.74366713 0.000000
-0.66424698 -0.16455901 4.78118086 0.000000
-0.66817498 -0.15753800 4.80479622 0.000000
0.04165000 0.53914398 3.94206905 0.000000
-0.77605498 -0.15712699 4.84427595 0.000000
-0.78807002 -0.15619799 4.82525396 0.000000
-0.79244298 -0.15988600 4.77924585 0.000000
-0.71454799 -0.05411400 4.81955099 0.000000
-0.45259199 -0.58028299 4.82090378 0.000000
-0.43754300 -0.58552903 4.82988787 0.000000
-0.49034199 -0.53983998 4.78456020 0.000000
-0.47044200 -0.56025797 4.80082607 0.000000
-0.43645200 -0.56494600 4.81831884 0.000000
-0.43180400 -0.56349200 4.82063007 0.000000
-0.41435301 -0.59795702 4.79893494 0.000000
