0.35289299 0.63487798 5.29662085 0.000000
0.59287697 0.47638801 5.53991604 0.000000
0.59987402 0.50186402 5.55722713 0.000000
0.46296501 0.63029498 5.24851608 0.000000
0.45671999 0.60804403 5.24914980 0.000000
0.57952797 0.54823703 5.44123888 0.000000
0.40319100 0.63230002 5.32533407 0.000000
0.53385502 0.52825397 5.54206514 0.000000
0.53932601 0.49968901 5.52820587 0.000000
0.54346800 0.47933301 5.52379894 0.000000
0.54338002 0.47355399 5.51717091 0.000000
0.62733001 0.53544903 5.48291111 0.000000
0.40042201 0.59254599 5.22019577 0.000000
0.09689100 -0.23491099 5.26009703 0.000000
0.05960900 -0.24587899 5.33837414 0.000000
0.09465300 -0.23921500 5.25089121 0.000000
0.05767500 -0.23985800 5.31936598 0.000000
0.05275900 -0.25831401 5.26601219 0.000000
0.07857200 -0.26519701 5.20369387 0.000000
0.03641900 -0.30684599 5.24891281 0.000000
0.10406000 -0.23620300 5.22651100 0.000000
0.10062800 -0.22896001 5.24224377 0.000000
0.11122800 -0.18850800 5.22611189 0.000000
0.04035300 -0.23148000 5.32229424 0.000000
0.04449400 -0.21350600 5.34900713 0.000000
0.11377500 -0.20800801 5.20646381 0.000000
0.11401100 -0.23019201 5.19393492 0.000000
0.02673200 -0.21571200 5.32402420 0.000000
0.09338500 -0.24817400 5.21747684 0.000000
0.10945200 -0.24466901 5.20082903 0.000000
0.04061300 -0.25619400 5.27477789 0.000000
0.05579700 -0.24653400 5.29755688 0.000000
0.09047200 -0.20720001 5.17244196 0.000000
0.02237500 -0.20064600 5.30246401 0.000000
0.01766100 -0.16713101 5.33673096 0.000000
0.08264800 -0.16338401 5.21963501 0.000000
0.03112700 -0.17146300 5.38363981 0.000000
0.08288500 -0.14746401 5.22281694 0.000000
0.11538700 -0.24018200 5.17534685 0.000000
0.11540000 -0.23713700 5.18130922 0.000000
0.01934700 -0.25599599 5.27939320 0.000000
0.00828200 -0.24046201 5.28903818 0.000000
0.11576700 -0.26446500 5.12992001 0.000000
-0.00073700 -0.24765700 5.27675486 0.000000
-0.00404100 -0.26138499 5.26359701 0.000000
0.09258700 -0.27407601 5.16192722 0.000000
0.10673300 -0.26170900 5.16914320 0.000000
0.02229200 -0.26970699 5.25563812 0.000000
0.00516100 -0.28205499 5.23786497 0.000000
0.10040100 -0.25729200 5.18656778 0.000000
0.04027700 -0.26872399 5.24534607 0.000000
0.02564800 -0.26565599 5.21668291 0.000000
0.00935400 -0.23520300 5.23086786 0.000000
0.08745300 -0.22939099 5.13324308 0.000000
0.11005900 -0.19838400 5.16456890 0.000000
-0.01291300 -0.21884701 5.24288416 0.000000
0.10184500 -0.28729799 5.10808802 0.000000
-0.00969000 -0.28234500 5.24221516 0.000000
0.11166200 -0.27481401 5.11625624 0.000000
-0.01749600 -0.27732101 5.24131012 0.000000
0.07404700 -0.30295101 5.11059284 0.000000
-0.00989200 -0.30223700 5.19532585 0.000000
0.08432300 -0.29349801 5.12859917 0.000000
-0.01026000 -0.29489699 5.21490622 0.000000
0.00728300 -0.28394300 5.18284988 0.000000
-0.02018700 -0.28219900 5.15967512 0.000000
0.09915800 -0.13907500 5.16590881 0.000000
0.00161000 -0.11553700 5.35233021 0.000000
0.06933200 -0.08253600 5.20574093 0.000000
0.00611000 -0.11061400 5.38012505 0.000000
0.00669400 -0.09573400 5.40666008 0.000000
0.07250400 -0.15093100 5.20391178 0.000000
-0.02670600 -0.20574300 5.25157881 0.000000
-0.05044800 -0.23276800 5.21758509 0.000000
0.05850500 -0.30754301 5.06191921 0.000000
0.00052800 -0.27952799 5.17260599 0.000000
0.02487600 -0.24669001 5.24057198 0.000000
0.02779100 -0.25534901 5.24032497 0.000000
0.00095400 -0.14718699 5.38736200 0.000000
0.00254500 -0.13462800 5.36755705 0.000000
0.10958900 -0.14720900 5.17656803 0.000000
0.00656400 -0.15228599 5.30631685 0.000000
-0.03424700 -0.21477801 5.23218679 0.000000
-0.05751000 -0.27701801 5.17415285 0.000000
-0.04087600 -0.29687700 5.15248585 0.000000
0.01679200 -0.22998300 5.24042702 0.000000
0.49130601 0.89063102 4.63091612 0.000000
0.45549500 0.91418099 4.67632389 0.000000
0.48950899 0.86063200 4.68872786 0.000000
0.79292399 0.90182102 4.75752306 0.000000
0.51543403 0.85989600 4.74058199 0.000000
0.56203902 0.88635498 4.73337603 0.000000
0.52501702 0.81779802 4.67491913 0.000000
0.51452202 0.82941401 4.68078899 0.000000
0.00916900 -0.02642100 5.08274794 0.000000
-0.10364000 -0.01408200 5.20676708 0.000000
-0.00801800 -0.00922600 5.07563782 0.000000
-0.10676400 -0.00834800 5.19987917 0.000000
0.03124100 0.01101000 5.14268017 0.000000
-0.07430800 -0.00329000 5.28530407 0.000000
0.04170800 -0.00811600 5.14175797 0.000000
-0.07150100 -0.02186600 5.29795122 0.000000
0.04268600 -0.06925500 5.08698797 0.000000
-0.09544900 -0.08998100 5.23204994 0.000000
0.01975200 -0.03930200 5.08412695 0.000000
-0.10272300 -0.06051800 5.21435404 0.000000
0.08191000 -0.10698600 5.14605713 0.000000
-0.05765500 -0.11222600 5.30728817 0.000000
0.07331700 -0.07826200 5.17406511 0.000000
0.07687400 -0.08834100 5.16582108 0.000000
-0.03429500 -0.11088900 5.34447622 0.000000
-0.00342200 -0.12363200 5.32003498 0.000000
0.39168599 0.97486502 5.25732279 0.000000
0.41302899 0.94975400 5.37082195 0.000000
0.66139501 0.91268498 5.69888115 0.000000
0.69153899 0.86535501 5.69351196 0.000000
0.66782498 0.91143298 5.70049715 0.000000
0.42470399 0.93298399 5.36436605 0.000000
-0.10149600 -0.14489999 5.19650602 0.000000
0.01546300 -0.11982500 5.06013823 0.000000
-0.20101100 -0.05293800 4.98352289 0.000000
0.26925701 -0.06628400 5.27491713 0.000000
0.28009701 -0.07890600 5.28478384 0.000000
0.31413099 -0.10350300 5.31008911 0.000000
0.27226400 -0.08200700 5.28226614 0.000000
0.34276801 -0.09424400 5.41742802 0.000000
0.33721301 -0.05820300 5.44114208 0.000000
0.34621999 -0.07282600 5.42897081 0.000000
0.32626501 -0.08724000 5.42785883 0.000000
0.37621200 -0.04806100 5.43250322 0.000000
0.25792700 -0.09363600 5.28501892 0.000000
0.26335299 -0.14261299 5.32926702 0.000000
0.30412701 -0.10443500 5.30770016 0.000000
0.33014101 -0.10535000 5.41728210 0.000000
0.32651201 -0.11588400 5.41420794 0.000000
0.30594200 -0.11781600 5.42242384 0.000000
0.29491499 -0.13542700 5.41947317 0.000000
0.28597200 -0.14484100 5.41924095 0.000000
0.32427201 -0.19347200 5.34858704 0.000000
0.28355101 -0.22802100 5.36421394 0.000000
0.29053500 -0.22224399 5.36683178 0.000000
0.31393901 -0.19829300 5.37123108 0.000000
0.31835300 -0.18200301 5.34076977 0.000000
0.31863400 -0.17050900 5.33580685 0.000000
0.30741701 -0.20004299 5.37681818 0.000000
0.34450999 -0.17756200 5.36609983 0.000000
0.27390999 0.02257800 5.25988913 0.000000
0.25940701 0.00636000 5.25945377 0.000000
0.27097800 0.03447600 5.25722408 0.000000
0.37811601 0.01205500 5.45843220 0.000000
0.37361801 0.00845200 5.45865679 0.000000
0.40150699 -0.00937100 5.44192505 0.000000
0.34797099 -0.00125600 5.46408176 0.000000
0.39732200 0.02263200 5.45563221 0.000000
0.27374801 -0.03128800 5.26917601 0.000000
0.26953599 -0.03062000 5.26814604 0.000000
0.28078401 -0.03180700 5.27078819 0.000000
0.31582901 -0.03406400 5.45959711 0.000000
0.32952899 -0.02496100 5.45961189 0.000000
0.38077101 -0.03615900 5.43786621 0.000000
0.31782800 -0.03444000 5.45877790 0.000000
0.46116501 0.11076800 5.47934103 0.000000
0.43990901 0.09798300 5.48676205 0.000000
0.29002801 -0.13914999 5.32727909 0.000000
0.30610800 -0.11668100 5.31726408 0.000000
0.31400001 -0.13506800 5.41124201 0.000000
0.32742500 -0.15216000 5.39864779 0.000000
0.33396801 -0.13215201 5.40399885 0.000000
0.27520099 -0.20000300 5.33849287 0.000000
0.26071301 -0.16334400 5.33527613 0.000000
0.27333000 -0.15460899 5.33409882 0.000000
0.29807800 -0.17383300 5.40201378 0.000000
0.32562399 -0.16059101 5.39595985 0.000000
0.27800500 -0.18968000 5.40384007 0.000000
0.40303901 0.90704900 5.32915306 0.000000
0.44930401 0.89063400 5.32004023 0.000000
0.45517400 0.92829502 5.22074080 0.000000
0.69433600 0.84067601 5.68235207 0.000000
0.39273599 0.90886599 5.31514502 0.000000
0.08209700 -0.27561301 5.16994381 0.000000
0.03442600 -0.27392700 5.23209381 0.000000
0.00993600 -0.22148199 5.25943708 0.000000
-0.00452500 -0.24632800 5.21548700 0.000000
0.00786000 -0.17211901 5.36462212 0.000000
0.00711000 -0.18322299 5.35229492 0.000000
0.00092800 -0.17871000 5.29557991 0.000000
0.01989100 -0.26232201 5.21545410 0.000000
0.01536800 -0.25559700 5.21405697 0.000000
0.05123500 -0.16617499 5.06300402 0.000000
-0.08823600 -0.19317400 5.13857985 0.000000
-0.09826200 -0.19594599 5.17934704 0.000000
-0.07141300 0.02804700 5.26775694 0.000000
-0.07330600 0.03507400 5.26108599 0.000000
0.02335000 0.01177000 5.19799423 0.000000
-0.03543900 0.00602400 5.29210997 0.000000
-0.03016000 -0.01161300 5.29460001 0.000000
0.02691600 0.00885000 5.20713091 0.000000
-0.02735000 -0.00824700 5.29623890 0.000000
-0.00073400 0.05044400 5.19087505 0.000000
0.00302600 0.05115900 5.19922876 0.000000
-0.01456500 0.05073800 5.26740503 0.000000
-0.06341000 0.04377500 5.20490694 0.000000
-0.02916500 0.04934700 5.26147223 0.000000
-0.06826900 0.04298700 5.20412016 0.000000
-0.00278300 0.05264200 5.28650808 0.000000
-0.10446500 -0.12925699 5.19126701 0.000000
-0.10931200 -0.08622900 5.19178009 0.000000
-0.11287800 -0.07847900 5.18238211 0.000000
-0.02056600 0.03032100 5.10591221 0.000000
-0.09701500 0.00673100 5.21560001 0.000000
-0.10471300 0.00559600 5.20086098 0.000000
-0.12196000 0.02348900 5.12233496 0.000000
-0.13545001 0.01632400 5.11037588 0.000000
-0.09438400 0.02072700 5.00919199 0.000000
-0.12990400 0.02104300 5.10137510 0.000000
-0.09461900 0.03311800 5.16444921 0.000000
-0.06757500 0.04375100 5.19567013 0.000000
-0.07792800 0.03883100 5.16236687 0.000000
-0.10435500 0.03041100 5.02270412 0.000000
-0.14298400 0.03085900 5.07117605 0.000000
-0.12242100 0.02789100 5.09851980 0.000000
-0.10128400 0.03376800 5.14384413 0.000000
-0.10633200 0.03048200 5.13543606 0.000000
-0.11489200 0.02774600 5.14286613 0.000000
-0.14143600 0.01368300 5.09779692 0.000000
-0.12154300 0.02782500 5.01428604 0.000000
-0.15453500 0.02410300 5.05795813 0.000000
-0.12611000 0.05626100 4.96703720 0.000000
0.96279001 0.37777799 4.51476908 0.000000
0.96492201 0.37388599 4.54217291 0.000000
0.55213100 0.55151898 4.61689806 0.000000
0.56335503 0.54294801 4.63459587 0.000000
0.82615697 0.55519998 4.65805817 0.000000
0.56332499 0.50507599 4.66958523 0.000000
0.81974697 0.52958000 4.65907192 0.000000
0.81157100 0.52691501 4.65855789 0.000000
0.63936698 0.54596198 4.47973394 0.000000
0.83531803 0.60672498 4.51071978 0.000000
0.63460702 0.51376200 4.51735497 0.000000
0.65237498 0.53783900 4.50680399 0.000000
0.82605398 0.60710299 4.51251078 0.000000
0.84102499 0.57529402 4.50002909 0.000000
0.55946702 0.57722098 4.59249592 0.000000
0.80981898 0.59021300 4.65550709 0.000000
0.57928097 0.56597900 4.62339401 0.000000
0.81088001 0.56567699 4.65669012 0.000000
0.59110898 0.64523298 4.46708012 0.000000
0.85877299 0.68447101 4.55935001 0.000000
0.62019300 0.61966902 4.44687605 0.000000
0.85861403 0.68006802 4.55332994 0.000000
0.85589498 0.65884900 4.62141180 0.000000
0.56112301 0.63512301 4.51124907 0.000000
0.50971001 0.15939701 4.70683479 0.000000
0.41856900 0.00215000 5.44280720 0.000000
0.41309500 0.01103700 5.44595194 0.000000
0.43282199 0.04977700 5.45462608 0.000000
0.44661200 0.03766500 5.44840193 0.000000
0.08010700 -0.24446800 5.10307693 0.000000
-0.03439400 -0.25237700 5.19503117 0.000000
-0.02575800 -0.22594000 5.22301483 0.000000
-0.08254900 0.03613200 4.98230219 0.000000
-0.09955400 -0.12875500 5.21483994 0.000000
-0.10444500 -0.08612500 5.20769310 0.000000
0.45682400 0.09656000 5.47267723 0.000000
0.40941000 0.07328900 5.49342203 0.000000
0.42004499 0.07117300 5.48109579 0.000000
0.42913499 0.06438700 5.46535397 0.000000
0.24334800 0.06613000 5.27558184 0.000000
0.24676999 0.01723200 5.26452923 0.000000
0.24157999 0.04840100 5.27367496 0.000000
0.39172301 0.05053900 5.48053217 0.000000
0.41279399 0.05402700 5.46727705 0.000000
0.38887301 0.05231000 5.48507118 0.000000
0.39917099 0.75182098 5.28820610 0.000000
0.61553502 0.64713103 5.62960482 0.000000
0.40490699 0.78415400 5.27776909 0.000000
0.60755599 0.65712702 5.63370180 0.000000
0.43041301 0.80659699 5.22115707 0.000000
0.65485501 0.68516201 5.60492992 0.000000
0.42388701 0.82335699 5.22675991 0.000000
0.37661600 0.64885902 5.31759596 0.000000
0.56606400 0.49027500 5.55480385 0.000000
0.37631699 0.60943902 5.33068609 0.000000
0.55828702 0.45890301 5.52173805 0.000000
0.44381201 0.58584899 5.23393393 0.000000
0.60341197 0.56073701 5.46829319 0.000000
0.58886498 0.56233698 5.46010590 0.000000
0.48831701 0.80324000 5.22519016 0.000000
0.61734098 0.69687700 5.55498123 0.000000
0.48540500 0.81133503 5.22014189 0.000000
0.50158900 0.84249598 5.26086617 0.000000
0.61008900 0.77092397 5.57836199 0.000000
0.60040402 0.72449398 5.57115412 0.000000
0.43420401 0.76433098 5.30749178 0.000000
0.55461103 0.62211698 5.60301018 0.000000
0.43755201 0.80450898 5.30081320 0.000000
0.58143401 0.69464499 5.62289286 0.000000
0.58859801 0.68440998 5.63319016 0.000000
0.40816501 0.81599998 5.26029921 0.000000
0.63809699 0.68551397 5.63230324 0.000000
0.41797400 0.86917901 5.23511124 0.000000
0.67152500 0.75562602 5.63509512 0.000000
0.63102400 0.62129098 5.57095003 0.000000
0.64511502 0.65153599 5.58420897 0.000000
0.55603302 0.56344002 5.47909403 0.000000
0.45514300 0.59573197 5.26028490 0.000000
0.55349702 0.54281598 5.45380306 0.000000
0.35289600 0.63226902 5.26945782 0.000000
0.60507101 0.47757700 5.53030682 0.000000
0.36603600 0.66175503 5.26717520 0.000000
0.43559799 0.55203998 5.28637505 0.000000
0.43152800 0.55691499 5.29369783 0.000000
0.54462701 0.49657300 5.40501308 0.000000
0.44330800 0.57495397 5.28389406 0.000000
0.43819001 0.57434398 5.29201794 0.000000
0.54512298 0.52949297 5.45197392 0.000000
0.33174300 0.59291703 5.30504894 0.000000
0.59516197 0.42344701 5.47702599 0.000000
0.59604001 0.44065601 5.50063610 0.000000
0.34367201 0.60924202 5.30970478 0.000000
0.58093202 0.45274699 5.51954222 0.000000
0.43080199 0.54148501 5.22126102 0.000000
0.59554303 0.53647703 5.41182899 0.000000
0.61060202 0.52790701 5.40823507 0.000000
0.54629302 0.44058201 5.46005487 0.000000
0.54219598 0.44288501 5.44600296 0.000000
0.37531501 0.59517199 5.33192587 0.000000
0.53952402 0.46284500 5.47833920 0.000000
0.63669801 0.49623701 5.43076515 0.000000
0.63699597 0.49698001 5.46108198 0.000000
0.86803401 0.43007699 4.67675495 0.000000
0.86357099 0.46617699 4.65764523 0.000000
0.86104798 0.43316299 4.67832088 0.000000
0.90551198 0.43909800 4.64688396 0.000000
0.89510298 0.45362201 4.64935398 0.000000
0.89144999 0.40533099 4.67128897 0.000000
0.87246799 0.41737700 4.68149185 0.000000
0.86325699 0.39762300 4.69606018 0.000000
0.84029698 0.38023299 4.69847822 0.000000
0.82408100 0.38682300 4.68972111 0.000000
0.56941199 0.63811702 4.48941278 0.000000
0.85863698 0.69093102 4.57939386 0.000000
0.56990403 0.62357402 4.49082279 0.000000
0.47203100 0.01562500 5.42318392 0.000000
0.47295901 0.00669200 5.41494989 0.000000
0.55187702 0.48631701 5.35325289 0.000000
0.42193899 0.53002399 5.29202414 0.000000
0.54642498 0.49753001 5.39649916 0.000000
0.44884300 -0.07810600 5.27500105 0.000000
0.45885000 -0.07893500 5.30177784 0.000000
0.41864699 -0.09694000 5.28542995 0.000000
0.43949601 -0.08230400 5.29683781 0.000000
0.39515001 -0.04386800 5.24294710 0.000000
0.46084601 -0.05023600 5.36157513 0.000000
0.48130199 -0.03489500 5.36121893 0.000000
0.49250799 -0.00527200 5.38315582 0.000000
0.46154201 0.63599497 5.29059315 0.000000
0.53630400 0.52361000 5.47401714 0.000000
0.46259099 0.64586997 5.29437590 0.000000
0.53438902 0.53195900 5.48810005 0.000000
0.59661001 0.77900201 5.59290791 0.000000
0.59871799 0.79157901 5.59602022 0.000000
0.40540001 0.57432199 5.32152987 0.000000
0.53678399 0.45884299 5.45063210 0.000000
0.41402999 0.55896801 5.31402206 0.000000
0.43709600 0.60363603 5.30556107 0.000000
0.53460699 0.50074399 5.48857307 0.000000
0.35088599 0.58889598 5.23600388 0.000000
0.63868701 0.48955399 5.46267509 0.000000
0.35577801 0.60708600 5.24013186 0.000000
0.63407999 0.49989799 5.48455715 0.000000
0.94581503 0.41719699 4.48545790 0.000000
0.94090301 0.41972601 4.46633196 0.000000
0.94335198 0.43647900 4.51064920 0.000000
0.94245899 0.43115300 4.49599981 0.000000
0.94810897 0.43892100 4.55247307 0.000000
0.93985498 0.45425600 4.54010582 0.000000
0.92321199 0.50263798 4.59863281 0.000000
0.93195999 0.47994000 4.58092594 0.000000
0.92694098 0.48483199 4.55222511 0.000000
0.93701297 0.46349800 4.55479193 0.000000
0.63559198 0.50844198 4.52059889 0.000000
0.63020003 0.49731401 4.51151323 0.000000
0.87929201 0.52017802 4.47170115 0.000000
0.87388802 0.52511197 4.47493505 0.000000
0.65401399 0.48756501 4.52604103 0.000000
0.86679602 0.50323802 4.47002602 0.000000
0.86071301 0.47730601 4.46650887 0.000000
0.85821998 0.47962001 4.46807623 0.000000
0.87684101 0.45909300 4.45198822 0.000000
0.87867200 0.46542001 4.45406199 0.000000
0.89471900 0.44690999 4.43837976 0.000000
0.89627302 0.43292800 4.43198109 0.000000
0.90998900 0.52919698 4.55048084 0.000000
0.90830702 0.53249598 4.54387093 0.000000
0.92081702 0.50261700 4.56790113 0.000000
0.91401899 0.51782697 4.55003214 0.000000
0.90925503 0.53072900 4.54802990 0.000000
0.90985298 0.53423297 4.58256912 0.000000
0.91551203 0.52251798 4.60222292 0.000000
0.90552902 0.54384398 4.57345295 0.000000
0.91752899 0.35138899 4.68264008 0.000000
0.95160699 0.36520299 4.59709215 0.000000
0.95218003 0.37499100 4.58890295 0.000000
0.96355402 0.38139200 4.54760122 0.000000
0.95810503 0.39636499 4.55574799 0.000000
0.94353497 0.38628301 4.60986614 0.000000
0.95386302 0.34166101 4.61434984 0.000000
0.95395499 0.34482101 4.61034679 0.000000
0.91846400 0.42138299 4.64366198 0.000000
0.91299498 0.47602999 4.62539816 0.000000
0.94295001 0.42840001 4.58563709 0.000000
0.95293200 0.42799601 4.55294180 0.000000
0.93878901 0.42186499 4.60336494 0.000000
0.93133801 0.43362400 4.62075996 0.000000
0.94331300 0.44237500 4.57589197 0.000000
0.93989998 0.43494999 4.59169722 0.000000
0.94366503 0.40961701 4.59476089 0.000000
0.94513398 0.40855199 4.59056520 0.000000
0.92192501 0.36525801 4.39470911 0.000000
0.93122900 0.40168700 4.43502903 0.000000
0.92932600 0.35806301 4.40032482 0.000000
0.92716497 0.44175699 4.46655989 0.000000
0.92543900 0.44587201 4.46805096 0.000000
0.92548603 0.46618900 4.48703480 0.000000
0.89890999 0.46377400 4.44469023 0.000000
0.91001302 0.45879400 4.45725393 0.000000
0.91490901 0.42562199 4.43441820 0.000000
0.90749598 0.43576401 4.43227482 0.000000
0.87075698 0.60585803 4.52730179 0.000000
0.86975503 0.58828998 4.50633717 0.000000
0.87469202 0.57678699 4.50533724 0.000000
0.88169903 0.56177598 4.50287104 0.000000
0.63233501 0.66856903 4.44424391 0.000000
0.62367100 0.67075503 4.44633007 0.000000
0.83962899 0.73267001 4.54960394 0.000000
0.59307098 0.75419402 4.50186682 0.000000
0.57058799 0.79623902 4.53780079 0.000000
0.52067000 0.90425003 4.61184597 0.000000
0.55045098 0.89757502 4.59889412 0.000000
0.81884998 0.92255902 4.64397812 0.000000
0.60653198 0.66047198 4.45348883 0.000000
0.85476702 0.70295399 4.56624985 0.000000
0.85153300 0.71302998 4.56655788 0.000000
0.55502599 0.76718402 4.53656101 0.000000
0.54567403 0.77796698 4.54849386 0.000000
0.84250498 0.77525699 4.61185789 0.000000
0.58385998 0.74480098 4.50262213 0.000000
0.57759100 0.76822901 4.51753187 0.000000
0.83567297 0.77502000 4.59364891 0.000000
0.83287901 0.93358302 4.68587923 0.000000
0.65429997 0.41413099 5.39770889 0.000000
0.62990397 0.39693901 5.41820002 0.000000
0.32439500 0.57681900 5.26044798 0.000000
0.64289302 0.46180299 5.44967890 0.000000
0.35238099 0.62645602 5.26034307 0.000000
0.62376201 0.46739700 5.49749613 0.000000
0.35841599 0.63745099 5.25832701 0.000000
0.62947297 0.49338299 5.50592089 0.000000
0.61806500 0.48881900 5.52614880 0.000000
0.62678802 0.53259802 5.54623795 0.000000
0.61989498 0.54703099 5.57431316 0.000000
0.62781203 0.58543003 5.58548594 0.000000
0.62559998 0.58995998 5.59231186 0.000000
0.67561001 0.75620800 5.59764194 0.000000
0.68752098 0.78594398 5.61383009 0.000000
0.66389298 0.77236199 5.57563877 0.000000
0.49859300 0.86876702 4.73151922 0.000000
0.78494900 0.91722202 4.79172611 0.000000
0.47042701 0.87173402 4.71112108 0.000000
0.48466799 0.86276197 4.69316196 0.000000
0.46723399 0.87449199 4.72622919 0.000000
0.82265502 0.94351298 4.80022717 0.000000
0.52842402 0.86509502 4.74698210 0.000000
0.50042701 0.86665100 4.74400282 0.000000
0.51418102 0.86040097 4.72315693 0.000000
0.77289498 0.91884702 4.80292177 0.000000
0.78369302 0.92555797 4.80225086 0.000000
0.82617003 0.91872501 4.73365211 0.000000
0.56878501 0.93105501 4.69843388 0.000000
0.73194498 0.92601597 4.73039579 0.000000
0.73685199 0.91990602 4.74919081 0.000000
0.01096100 0.07780300 5.31674623 0.000000
0.03816100 0.05878500 5.22532797 0.000000
0.03792200 0.06582200 5.23887777 0.000000
0.08294000 -0.18518400 5.11310005 0.000000
-0.06073800 -0.18321300 5.27397680 0.000000
0.08920000 -0.15988000 5.14793777 0.000000
-0.04136600 -0.18065900 5.28489208 0.000000
0.00418300 0.07172500 5.34041214 0.000000
0.05742800 -0.26007599 5.14343119 0.000000
-0.02032900 -0.26139599 5.20961380 0.000000
0.06204000 -0.27116600 5.16121912 0.000000
0.06337700 -0.25239000 5.14095879 0.000000
-0.00548700 -0.26487899 5.23684311 0.000000
-0.01215100 0.04491100 5.38241386 0.000000
0.00285200 0.04487100 5.38996983 0.000000
-0.08498800 -0.11164000 5.00902081 0.000000
-0.11745400 -0.11233200 5.13570881 0.000000
-0.12411500 -0.13416301 5.06561422 0.000000
-0.11849400 -0.09219900 5.15944290 0.000000
-0.07980100 0.01082400 5.01171780 0.000000
-0.10805400 -0.00002700 4.98445511 0.000000
-0.09349900 0.02046300 5.02904415 0.000000
-0.09253000 0.01383100 5.00801182 0.000000
-0.10945100 0.00962000 5.00167704 0.000000
-0.13274200 0.01851100 5.11759281 0.000000
-0.01840600 0.04859300 5.14532995 0.000000
-0.05328100 0.04783500 5.26191616 0.000000
-0.10423400 0.02840600 5.17238617 0.000000
-0.07572100 0.01605700 5.02056980 0.000000
-0.11329900 0.01884300 4.99833584 0.000000
-0.17405900 -0.00066000 5.02873802 0.000000
-0.13613100 0.01869600 5.00061417 0.000000
-0.09231300 0.04187700 5.20366383 0.000000
-0.18151601 0.05352300 5.04890919 0.000000
-0.12130900 0.04394100 5.15787220 0.000000
-0.00854100 0.03172900 5.12449789 0.000000
0.00707400 0.03555600 5.17647314 0.000000
0.01041200 0.03628200 5.18305779 0.000000
0.00927200 0.04294300 5.18578386 0.000000
-0.04647600 0.03279500 5.27781105 0.000000
-0.04314400 0.01743500 5.28740692 0.000000
-0.05872700 0.00706900 5.26949883 0.000000
-0.03308100 0.04562300 5.29191780 0.000000
-0.02084500 0.04518500 5.13940907 0.000000
-0.01566800 0.04270300 5.13741589 0.000000
-0.04320000 0.03733800 5.10400677 0.000000
-0.17087799 -0.00753300 5.03617907 0.000000
-0.08617900 0.05644800 5.00801611 0.000000
-0.03259300 0.05210500 5.12772989 0.000000
-0.03693300 0.04921000 5.11129999 0.000000
-0.09153700 0.04459600 5.21911478 0.000000
0.43305600 0.19114900 5.48692703 0.000000
0.44085199 0.19708000 5.48650503 0.000000
0.26515901 0.19930699 5.44414186 0.000000
0.20748900 0.19241200 5.42903280 0.000000
0.18243800 0.19691400 5.41583681 0.000000
0.20307700 0.19177499 5.42797279 0.000000
0.05302800 0.10479900 5.33160877 0.000000
0.05551500 0.11107000 5.31482601 0.000000
0.35762599 0.12691499 5.09384584 0.000000
0.41858801 0.01619200 5.09734106 0.000000
0.65917999 0.79888803 5.57882595 0.000000
0.67335200 0.81886202 5.59146881 0.000000
0.44797701 0.70107502 5.21976423 0.000000
0.45441899 0.68375701 5.22214317 0.000000
0.60675001 0.62138498 5.53045893 0.000000
0.41697901 0.58114499 5.21893120 0.000000
0.42836601 0.62475300 5.22024584 0.000000
0.60839897 0.56144202 5.47628498 0.000000
0.47963399 0.82216603 5.21530008 0.000000
0.46413800 0.81480998 5.21294403 0.000000
0.66204900 0.74834800 5.57102013 0.000000
0.61112100 0.49870500 5.33503389 0.000000
0.61234099 0.49169001 5.32353115 0.000000
0.62789899 0.49135900 5.33021116 0.000000
0.64940101 0.58967799 4.45697689 0.000000
0.82646602 0.66357201 4.51377106 0.000000
0.66144300 0.60693997 4.47025490 0.000000
0.82818800 0.67911202 4.51182699 0.000000
0.76945299 0.64173698 4.63220310 0.000000
0.61267102 0.63720101 4.57482004 0.000000
0.78280401 0.64127398 4.64350891 0.000000
0.65062898 0.62746400 4.56475115 0.000000
0.75971597 0.63482100 4.61219120 0.000000
0.75485098 0.67026103 4.57448721 0.000000
0.66514897 0.64537501 4.47957802 0.000000
0.65872002 0.65755701 4.46919584 0.000000
0.78878802 0.68686903 4.53561020 0.000000
0.85043502 0.68010199 4.52451706 0.000000
0.83921099 0.70064402 4.51693487 0.000000
0.56312102 0.67515099 4.50063610 0.000000
0.58756101 0.65527499 4.47021103 0.000000
0.85928601 0.70116401 4.60330820 0.000000
0.60014898 0.78305101 4.53598022 0.000000
0.81427503 0.80466700 4.58168507 0.000000
0.59998798 0.78980398 4.54603910 0.000000
0.80546999 0.78166997 4.57235098 0.000000
0.09199400 -0.17856400 5.18390179 0.000000
0.10695900 -0.20271900 5.14716482 0.000000
0.00049400 -0.19374400 5.32776690 0.000000
-0.01850100 -0.19674499 5.26365614 0.000000
0.10138900 -0.19475199 5.14008379 0.000000
-0.01499600 -0.19655000 5.28236294 0.000000
0.08732800 -0.24950799 5.21506023 0.000000
0.02153600 -0.20326000 5.29540491 0.000000
-0.06121100 0.04682500 5.22018099 0.000000
-0.05583100 0.04809800 5.20528793 0.000000
-0.00726900 0.04850800 5.16778994 0.000000
-0.07298900 0.04032400 5.25619888 0.000000
0.01088700 0.00481800 5.10955286 0.000000
-0.08500100 0.00743700 5.24653816 0.000000
0.02644400 0.01112000 5.13257694 0.000000
-0.09274300 -0.00899100 5.23469400 0.000000
0.06806200 -0.10986800 5.09652519 0.000000
-0.08468800 -0.09727800 5.25893593 0.000000
0.04834500 -0.07593700 5.08997393 0.000000
0.04299900 -0.06413700 5.09078503 0.000000
-0.09331600 -0.06499700 5.24084997 0.000000
0.03350300 0.02019000 5.17027378 0.000000
-0.06216600 0.00140200 5.31693888 0.000000
-0.06419000 0.01629600 5.30452490 0.000000
-0.05595200 0.03048000 5.31477690 0.000000
0.06544700 -0.12467600 5.08546209 0.000000
-0.08842700 -0.12664300 5.24332094 0.000000
0.06219900 -0.13216799 5.07872105 0.000000
0.08681200 -0.15038300 5.13048697 0.000000
-0.04141600 -0.15858200 5.30830002 0.000000
-0.06098900 -0.16444400 5.28582001 0.000000
0.08844400 -0.14453600 5.15167713 0.000000
-0.04087300 -0.13715300 5.32130718 0.000000
0.07282700 -0.07307300 5.15592194 0.000000
-0.03755500 -0.05827800 5.35801792 0.000000
-0.05146300 -0.06809000 5.33245897 0.000000
-0.02379900 -0.04804900 5.37974310 0.000000
-0.03401000 -0.04823400 5.36492395 0.000000
0.04281300 -0.03127400 5.11733913 0.000000
-0.08668300 -0.03775600 5.25887203 0.000000
0.04421600 -0.04466100 5.10950613 0.000000
-0.09010200 -0.06264800 5.24952698 0.000000
-0.07706600 -0.06459100 5.28401089 0.000000
-0.06218800 0.03547900 5.02834797 0.000000
-0.15177700 0.02410100 5.11969280 0.000000
-0.04809100 0.01200200 5.03130817 0.000000
-0.13172600 0.01380400 5.14962721 0.000000
0.02217800 -0.03276200 5.09115410 0.000000
-0.09826200 -0.03136900 5.22326088 0.000000
0.03563100 -0.03044800 5.10558605 0.000000
-0.09246300 -0.04434100 5.24245691 0.000000
-0.09898000 -0.16098499 5.10739517 0.000000
-0.05449100 -0.15753201 5.04668379 0.000000
-0.06273000 -0.21922401 5.13335180 0.000000
0.01945700 -0.23367199 5.09824800 0.000000
-0.07044100 -0.23227900 5.17360401 0.000000
-0.09026300 -0.17154901 5.23369789 0.000000
-0.09421200 -0.18331601 5.21999979 0.000000
-0.09097400 -0.16566800 5.23316813 0.000000
-0.10400500 -0.12335200 5.19844913 0.000000
-0.10701100 -0.10977700 5.19116116 0.000000
-0.03485400 -0.07788700 5.03003120 0.000000
-0.13468000 -0.09126400 5.11415720 0.000000
-0.14838500 -0.11190600 5.03726006 0.000000
-0.13551900 -0.12445300 5.04323196 0.000000
-0.11548000 -0.14207400 5.05039787 0.000000
-0.03477200 -0.15686101 5.05299520 0.000000
-0.04841900 -0.14068000 5.04142094 0.000000
-0.04773700 -0.17314801 5.05918217 0.000000
-0.05968800 -0.13852200 5.03474808 0.000000
-0.04232300 -0.18928500 5.07171488 0.000000
0.00944600 -0.21228300 5.07139206 0.000000
-0.08825200 -0.19616701 5.14157820 0.000000
0.00363700 -0.21711899 5.07990122 0.000000
-0.00384400 -0.21121800 5.07733107 0.000000
-0.08313400 -0.19249900 5.12263680 0.000000
-0.09290900 -0.17393801 5.15069914 0.000000
-0.05815300 -0.06885100 5.00603914 0.000000
-0.11196400 -0.10256500 4.99118185 0.000000
-0.06109700 0.04993700 5.05970097 0.000000
-0.04985000 0.03463900 5.05706787 0.000000
-0.13959201 0.02603600 5.13691521 0.000000
-0.03302800 0.04274200 5.10837984 0.000000
-0.11095200 0.03919200 5.17519617 0.000000
-0.11705100 0.04612000 5.15920305 0.000000
-0.11819600 -0.00251500 5.17572880 0.000000
-0.02900200 0.01339700 5.06821489 0.000000
-0.20245700 -0.05326200 4.98847485 0.000000
-0.17159900 0.02873000 5.08927679 0.000000
-0.06409200 0.02059000 5.00675392 0.000000
-0.16732800 0.02711000 5.09601879 0.000000
-0.08409700 0.05457300 5.00936794 0.000000
-0.07591400 0.05079800 5.02112198 0.000000
0.06233800 -0.34645700 5.24275208 0.000000
0.03630600 -0.33709401 5.22744083 0.000000
0.05251700 -0.33990899 5.26190281 0.000000
-0.02269700 -0.20296700 5.07818699 0.000000
-0.05978500 -0.20921500 5.11220503 0.000000
-0.06760600 0.04080800 5.12063980 0.000000
-0.09760500 0.03639700 5.10996199 0.000000
-0.07395200 0.04067900 5.11589718 0.000000
-0.10850100 0.03477200 5.10058689 0.000000
-0.10490900 0.03925600 5.05639887 0.000000
-0.12317200 0.03956700 5.05257416 0.000000
-0.13651900 0.03893700 5.06344700 0.000000
-0.13196100 -0.08866900 4.97531891 0.000000
0.02809800 -0.27362099 5.14607716 0.000000
-0.00465400 -0.28143999 5.18432808 0.000000
0.04260200 -0.26493701 5.14471292 0.000000
-0.00721600 -0.27760699 5.18963480 0.000000
-0.13190500 -0.12667701 5.03818893 0.000000
-0.13769300 0.00414300 5.01035881 0.000000
-0.14213300 -0.00364600 4.99486017 0.000000
-0.16936199 -0.00642400 5.02168512 0.000000
-0.12018300 -0.11930600 5.00840807 0.000000
-0.05735700 -0.17019700 5.05718613 0.000000
-0.00158500 -0.22712700 5.09781885 0.000000
-0.05211100 -0.22166800 5.12544823 0.000000
-0.06805800 -0.18902400 5.08641577 0.000000
-0.16238301 -0.09799200 5.00553799 0.000000
-0.19271301 0.04729100 5.00451994 0.000000
0.08488200 -0.18640900 5.13437223 0.000000
-0.02775100 -0.18919700 5.28545189 0.000000
0.07512700 -0.21614800 5.11929893 0.000000
-0.04617300 -0.21655899 5.26120377 0.000000
-0.20283499 0.01002800 5.04263210 0.000000
-0.19099000 0.01367700 5.06388378 0.000000
-0.07886000 0.02458000 4.98231077 0.000000
-0.17468999 0.00510100 5.08943701 0.000000
-0.16251300 0.00099800 5.10650301 0.000000
-0.07835200 -0.00263200 4.97715902 0.000000
-0.07112300 -0.01256200 4.98688984 0.000000
-0.12492600 0.00591100 4.94487906 0.000000
0.65605003 0.45602599 5.35049486 0.000000
0.64032102 0.48812801 5.39523315 0.000000
0.67127597 0.75527400 5.57700205 0.000000
0.65927601 0.72233802 5.57867289 0.000000
0.65014499 0.68809098 5.57630301 0.000000
0.38733199 0.63502699 5.22719097 0.000000
0.63247198 0.53320003 5.51414824 0.000000
0.62858200 0.53667098 5.48951817 0.000000
0.66079003 0.42995301 5.30092382 0.000000
0.66407299 0.42579001 5.31209183 0.000000
0.44231799 0.71162802 5.21972084 0.000000
0.62157100 0.59486198 5.53312922 0.000000
0.62330103 0.63080901 5.55630016 0.000000
0.62993598 0.50804299 5.41881323 0.000000
0.63237101 0.50384802 5.42040491 0.000000
0.19951400 -0.20212200 5.32240582 0.000000
0.22309500 -0.17746000 5.32714987 0.000000
0.26130801 -0.18610600 5.33706188 0.000000
0.24095300 -0.17748700 5.33159924 0.000000
0.21946900 -0.19779100 5.40613222 0.000000
0.23684201 -0.19548699 5.40542984 0.000000
0.22171301 -0.19050901 5.40883780 0.000000
0.27563301 -0.20232600 5.39906693 0.000000
0.18653400 -0.20522800 5.32031488 0.000000
0.17972700 -0.20793900 5.31974602 0.000000
0.21348900 -0.22012199 5.33053207 0.000000
0.19450299 -0.21520600 5.32506800 0.000000
0.26680899 -0.21762800 5.39423180 0.000000
0.21338800 -0.22297999 5.39831781 0.000000
0.20040800 -0.23264700 5.39674711 0.000000
0.21136600 -0.21729299 5.40027809 0.000000
0.05106500 -0.31051299 5.08841515 0.000000
0.08431900 -0.27967000 5.23280191 0.000000
0.06034600 -0.26477200 5.31527805 0.000000
0.08423600 -0.19767100 5.16759682 0.000000
0.09097000 -0.18835799 5.16779709 0.000000
0.04016900 -0.28746000 5.09533596 0.000000
-0.08880800 -0.20862000 5.15578985 0.000000
0.05126300 -0.20879300 5.06741714 0.000000
-0.09356200 -0.20445500 5.21026421 0.000000
-0.09329200 -0.16500200 5.15916491 0.000000
-0.09695200 -0.16063300 5.17680311 0.000000
0.02444300 -0.18662900 5.32131577 0.000000
0.01529100 -0.20313600 5.27609682 0.000000
0.09520000 -0.17032699 5.16826677 0.000000
0.01181800 -0.17421199 5.26325989 0.000000
0.01001400 -0.15589499 5.32069588 0.000000
0.10076900 -0.14465100 5.18459988 0.000000
0.10809000 -0.12751199 5.19021320 0.000000
0.00546800 -0.13675401 5.33800411 0.000000
0.01417700 -0.15508400 5.33360815 0.000000
0.01182300 -0.14292599 5.35774088 0.000000
0.11184800 -0.16609000 5.20173407 0.000000
0.71602798 0.44289699 4.61588097 0.000000
0.69375199 0.46336299 4.64382601 0.000000
0.78301698 0.42981499 4.56813622 0.000000
0.79870301 0.46100399 4.51997185 0.000000
0.80766898 0.42704600 4.51959896 0.000000
0.80645001 0.43143401 4.51976109 0.000000
0.65665901 0.67573297 4.54912376 0.000000
0.75754398 0.69512898 4.58065081 0.000000
0.66285902 0.66784298 4.50608397 0.000000
0.77496397 0.69178897 4.55205917 0.000000
0.60071701 0.79806602 4.60996580 0.000000
0.76044601 0.83129299 4.64435196 0.000000
0.59375900 0.82341897 4.63285685 0.000000
0.59127301 0.83981502 4.64132023 0.000000
0.74546403 0.87533402 4.67789507 0.000000
0.67227799 0.58344603 4.53976297 0.000000
0.75968999 0.61005902 4.57961893 0.000000
0.65631503 0.56632000 4.58771896 0.000000
0.76517600 0.59692800 4.57337713 0.000000
0.56725800 0.88490701 4.69610119 0.000000
0.73897398 0.92410499 4.69416714 0.000000
0.77118403 0.67017102 4.54859686 0.000000
0.76466697 0.65908003 4.55743790 0.000000
-0.09578600 0.00702000 4.96027517 0.000000
-0.06397200 -0.09235900 5.01045799 0.000000
-0.14000700 -0.10922400 5.07485008 0.000000
-0.16742100 -0.08507200 5.05368280 0.000000
-0.08119000 -0.10247600 5.00517511 0.000000
-0.14352700 0.05716500 4.97357512 0.000000
0.07409400 -0.24463500 5.15145922 0.000000
-0.02029500 -0.23918000 5.24853992 0.000000
0.07540700 -0.22663300 5.13932991 0.000000
-0.02638300 -0.23477200 5.24684620 0.000000
0.05167700 -0.21782000 5.07629681 0.000000
0.03652200 -0.22413500 5.07840490 0.000000
0.03186800 -0.20105200 5.05684996 0.000000
0.04035500 -0.17748100 5.06102419 0.000000
0.55965400 0.68127501 4.50948715 0.000000
0.85124600 0.71793300 4.61578321 0.000000
0.54822201 0.71674299 4.53568792 0.000000
0.84322602 0.74777800 4.63810587 0.000000
0.84631997 0.72237003 4.63164711 0.000000
0.49531800 0.84334099 4.61945486 0.000000
0.49787399 0.87295502 4.61586285 0.000000
0.84114099 0.89397502 4.67621422 0.000000
0.84026802 0.89532202 4.68644810 0.000000
0.59427202 0.70910603 4.59134293 0.000000
0.77100700 0.73898798 4.66035795 0.000000
0.58322299 0.69649398 4.58998585 0.000000
0.77875799 0.73449498 4.66468000 0.000000
0.64381301 0.69615799 4.56107187 0.000000
0.62768602 0.70269400 4.57304907 0.000000
0.75622302 0.75413001 4.62422705 0.000000
0.60895199 0.71382302 4.58946323 0.000000
0.61830997 0.69823003 4.57889080 0.000000
0.75747800 0.75737399 4.63030100 0.000000
0.55849600 0.83985603 4.68574381 0.000000
0.75341600 0.87336302 4.71621895 0.000000
0.56863898 0.85416597 4.68153286 0.000000
0.74100101 0.89909703 4.70662785 0.000000
0.48721400 0.86031002 4.65520000 0.000000
0.82325399 0.90516502 4.73018217 0.000000
0.48839700 0.86108798 4.64112282 0.000000
0.55789000 0.68227899 4.54022884 0.000000
0.55971199 0.67950499 4.54478884 0.000000
0.82019198 0.74030101 4.66225910 0.000000
0.55516601 0.67875701 4.51888180 0.000000
0.55125701 0.71205002 4.55639791 0.000000
0.83883202 0.75002801 4.64577579 0.000000
0.63959903 0.70781600 4.48987198 0.000000
0.79735202 0.74007398 4.55403996 0.000000
0.63154501 0.72914702 4.51108694 0.000000
0.63746703 0.72027200 4.51176596 0.000000
0.77284402 0.75075102 4.58184481 0.000000
0.57981998 0.88401902 4.64302111 0.000000
0.76456100 0.89634597 4.64569998 0.000000
0.59276199 0.84814203 4.62892485 0.000000
0.59167200 0.84952998 4.62234783 0.000000
0.74776900 0.90823400 4.66773605 0.000000
0.55785602 0.71118402 4.57671309 0.000000
0.79430401 0.71901602 4.66384506 0.000000
0.80623299 0.72731900 4.66294193 0.000000
0.57305300 0.67149597 4.56461287 0.000000
0.79854798 0.70900702 4.66032791 0.000000
0.49928701 0.85022801 4.68786097 0.000000
0.80487603 0.89805299 4.74169588 0.000000
0.55849099 0.87740397 4.58367586 0.000000
0.81558198 0.87040699 4.61197376 0.000000
0.54522002 0.88125998 4.58639908 0.000000
0.81831300 0.91211700 4.63743210 0.000000
0.59944898 0.72460300 4.48185682 0.000000
0.61427301 0.70276600 4.46481705 0.000000
0.82847703 0.74844998 4.55070210 0.000000
0.51236701 0.86528498 4.59660387 0.000000
0.83456498 0.91218603 4.66118383 0.000000
0.52609497 0.85803002 4.58361197 0.000000
0.83117300 0.89841402 4.64155912 0.000000
0.83315003 0.90476102 4.65053988 0.000000
0.58428502 0.70676100 4.48596621 0.000000
0.85132903 0.73225802 4.59595919 0.000000
0.84446597 0.74680901 4.58918095 0.000000
0.59147000 0.70945501 4.48061085 0.000000
0.83955002 0.75081402 4.57389498 0.000000
0.57730699 0.85938698 4.58668423 0.000000
0.79697299 0.91188800 4.63082981 0.000000
0.79121298 0.88625598 4.62293100 0.000000
0.56912398 0.88201702 4.59982920 0.000000
0.79186898 0.91969103 4.63636589 0.000000
0.63263398 0.69483000 4.45628309 0.000000
0.62531501 0.71527201 4.47401094 0.000000
0.80895001 0.74854100 4.55122089 0.000000
0.75139803 0.89490497 4.74022198 0.000000
0.65302700 0.69517499 4.52340984 0.000000
0.64207101 0.72030002 4.53684282 0.000000
0.76959401 0.71119499 4.56609106 0.000000
0.76465702 0.73240697 4.58606577 0.000000
0.63494098 0.72849703 4.55530691 0.000000
0.75873703 0.74963897 4.61333895 0.000000
0.75622499 0.72349799 4.59923887 0.000000
0.73927498 0.90848601 4.69681692 0.000000
0.58726102 0.85137498 4.65100288 0.000000
0.74460799 0.90559500 4.67087317 0.000000
0.58924001 0.40336001 5.44778299 0.000000
0.57967597 0.40808100 5.45641279 0.000000
0.38801000 0.55490398 5.32978106 0.000000
0.53702199 0.45904699 5.42454290 0.000000
0.41407099 0.52570599 5.29920721 0.000000
0.53715098 0.45852500 5.38235092 0.000000
0.59329301 0.49721399 5.33523798 0.000000
0.58498198 0.49597201 5.33501291 0.000000
0.64704198 0.46160901 5.42841578 0.000000
0.65566498 0.44511899 5.39988279 0.000000
0.35139900 0.55107898 5.33338499 0.000000
0.56087202 0.42199600 5.45754385 0.000000
0.56397498 0.41128799 5.44532919 0.000000
0.62990898 0.50093102 5.36419821 0.000000
0.63902599 0.48590201 5.35243607 0.000000
0.43404299 0.52660698 5.27298689 0.000000
0.56042498 0.49474499 5.35200882 0.000000
0.56106400 0.48302001 5.32272482 0.000000
0.60815299 0.41412500 5.45893097 0.000000
0.62080199 0.40990701 5.43969011 0.000000
0.66311699 0.42770800 5.34480810 0.000000
0.66270101 0.43058300 5.34945011 0.000000
0.54801798 0.47374400 5.33383179 0.000000
0.33330300 0.57398403 5.24249887 0.000000
0.64897197 0.44232199 5.42319012 0.000000
0.63635701 0.43526000 5.44547415 0.000000
0.63329297 0.46188000 5.28714418 0.000000
0.62976003 0.47288400 5.29911184 0.000000
0.62749499 0.76679403 5.65949011 0.000000
0.49647999 0.86172402 5.22775507 0.000000
0.48809999 0.86994201 5.21858883 0.000000
0.41541001 0.89317602 5.23972178 0.000000
0.68246102 0.77498698 5.61867905 0.000000
0.67939103 0.76807398 5.61949682 0.000000
0.50064600 0.83775800 5.23146391 0.000000
0.63436800 0.76797998 5.56745100 0.000000
0.49963701 0.88644803 5.24167013 0.000000
0.62426800 0.78013498 5.57790518 0.000000
0.67467701 0.75695097 5.59145117 0.000000
0.68793601 0.79137403 5.60186100 0.000000
0.67583799 0.76520699 5.63597488 0.000000
0.55481899 0.73321700 4.52856779 0.000000
0.55056101 0.75911099 4.53748178 0.000000
0.84272897 0.76429600 4.62575912 0.000000
0.53739500 0.77105099 4.55917120 0.000000
0.84203702 0.79348898 4.65038013 0.000000
0.84286100 0.81193501 4.64680290 0.000000
0.55460399 0.79346597 4.65590382 0.000000
0.76539701 0.84224898 4.70381403 0.000000
0.53593397 0.80688500 4.66947985 0.000000
0.77811903 0.83442801 4.70798779 0.000000
0.60503399 0.76461297 4.60822916 0.000000
0.59554499 0.76666301 4.61670113 0.000000
0.76023102 0.78338802 4.65396786 0.000000
0.59004098 0.75832802 4.61790419 0.000000
0.76418000 0.79151702 4.67023802 0.000000
0.51582497 0.79818702 4.62469387 0.000000
0.50069302 0.82775098 4.63341093 0.000000
0.82246900 0.86954498 4.71726322 0.000000
0.51447701 0.79927200 4.61211920 0.000000
0.50323403 0.82116598 4.61030817 0.000000
0.84064102 0.84051698 4.67952919 0.000000
0.62619197 0.73395997 4.50302076 0.000000
0.62665701 0.73382503 4.50438595 0.000000
0.78861099 0.76618099 4.57670498 0.000000
0.79549003 0.77396899 4.57467508 0.000000
0.62069798 0.76044297 4.54873800 0.000000
0.60374099 0.78607303 4.55022097 0.000000
0.76954103 0.80974603 4.61447811 0.000000
0.54028797 0.76686698 4.62237120 0.000000
0.53920799 0.77957302 4.63806295 0.000000
0.79174399 0.76883602 4.68069696 0.000000
0.81092697 0.81125402 4.69322491 0.000000
0.55832398 0.73338598 4.60056210 0.000000
0.54909199 0.74077600 4.60038710 0.000000
0.80503303 0.77964300 4.68180895 0.000000
0.57215703 0.80434799 4.54166317 0.000000
0.81588602 0.84154701 4.59618282 0.000000
0.56058800 0.83202201 4.55726624 0.000000
0.82958400 0.84460402 4.60974503 0.000000
0.53472602 0.84773999 4.57466888 0.000000
0.83745402 0.85053003 4.63173723 0.000000
0.84078503 0.86284000 4.64554882 0.000000
0.54934502 0.84110999 4.56261492 0.000000
0.82977903 0.87644398 4.62429285 0.000000
0.58701801 0.84544802 4.58646011 0.000000
0.58705801 0.82166702 4.56132412 0.000000
0.79337299 0.86359102 4.61304522 0.000000
0.59390700 0.79577500 4.54573822 0.000000
0.80253398 0.82268602 4.59331083 0.000000
0.61293900 0.77685100 4.58647108 0.000000
0.76809502 0.78643203 4.60680199 0.000000
0.76510799 0.76105797 4.60336304 0.000000
0.60148698 0.79247600 4.60996389 0.000000
0.76319402 0.80216998 4.62879992 0.000000
0.76144701 0.80291599 4.63481092 0.000000
0.78658003 0.92960900 4.80735588 0.000000
0.73761803 0.93993598 4.79289484 0.000000
0.74813497 0.91342503 4.78621483 0.000000
0.07638900 -0.32461500 5.26570606 0.000000
0.06275500 -0.34228501 5.27261209 0.000000
0.07790300 -0.32306400 5.28956699 0.000000
0.07972000 -0.33128601 5.30908823 0.000000
0.06711000 -0.32611799 5.30833817 0.000000
0.08195100 -0.29580599 5.25617981 0.000000
0.05545500 -0.28285801 5.30017710 0.000000
0.05610800 -0.29602700 5.30701399 0.000000
0.07935300 -0.30965301 5.26790619 0.000000
0.05218900 -0.30059600 5.28766489 0.000000
0.44091699 0.70955902 5.31697798 0.000000
0.54521799 0.60488701 5.58834696 0.000000
0.46072599 0.74032199 5.30463696 0.000000
0.54988402 0.64220899 5.58869696 0.000000
0.47499400 0.75131798 5.29296303 0.000000
0.54414397 0.61583698 5.56567621 0.000000
0.47156399 0.71087903 5.29451799 0.000000
0.54608297 0.61573702 5.55392504 0.000000
0.46888700 0.84046501 5.29760599 0.000000
0.58516300 0.73118502 5.61873913 0.000000
0.45886201 0.81701499 5.30022621 0.000000
0.57543498 0.74592203 5.61297607 0.000000
0.11286900 -0.17522100 5.23094606 0.000000
0.11224200 -0.16396999 5.25713587 0.000000
0.10943300 -0.18984500 5.27148390 0.000000
0.07429500 -0.18444300 5.39854383 0.000000
0.06098900 -0.18864700 5.38600111 0.000000
0.06774800 -0.15999401 5.40610695 0.000000
0.10205300 -0.22297400 5.27006102 0.000000
0.06293200 -0.20235600 5.38020420 0.000000
0.06172600 -0.20511600 5.37715197 0.000000
0.09179700 -0.26689300 5.28242016 0.000000
0.09620200 -0.26529601 5.30469084 0.000000
0.09412000 -0.27596399 5.30874109 0.000000
0.07442600 -0.26668000 5.35226822 0.000000
0.07665300 -0.26531100 5.35817623 0.000000
0.08043400 -0.25794899 5.36903715 0.000000
0.08862300 -0.27910900 5.28528118 0.000000
0.07493700 -0.28043300 5.35159683 0.000000
0.06897700 -0.28069299 5.33997583 0.000000
-0.10381500 0.03165400 5.17749405 0.000000
-0.09438000 0.06060300 4.99838018 0.000000
-0.05359100 0.05380100 5.08894587 0.000000
-0.13764399 -0.00523500 4.98672581 0.000000
-0.02716000 0.01751100 5.37916994 0.000000
0.05021000 0.01436300 5.20092010 0.000000
0.09306500 -0.00700300 5.24212694 0.000000
0.09296500 -0.00118300 5.45220613 0.000000
0.09895100 0.01708600 5.24800491 0.000000
0.07688900 0.02602500 5.43714190 0.000000
0.08159200 0.02199700 5.44042587 0.000000
0.05672900 0.10153400 5.35708380 0.000000
0.04548300 0.06744300 5.38654709 0.000000
0.05734900 -0.01121900 5.21669292 0.000000
0.02622100 -0.04253700 5.42897701 0.000000
0.06986700 -0.02283300 5.22572279 0.000000
0.03618800 -0.03759900 5.43180323 0.000000
0.07252200 0.08737500 5.27720118 0.000000
0.06268400 0.02866900 5.22958803 0.000000
0.08021000 0.05549100 5.25461578 0.000000
0.05684100 0.05649500 5.40240383 0.000000
0.04513900 -0.00100400 5.43233919 0.000000
0.07777200 0.01800500 5.24021387 0.000000
0.05318400 0.00867400 5.43198204 0.000000
0.07141900 -0.08953600 5.21462297 0.000000
0.07472700 0.11703100 5.29363680 0.000000
0.07252400 0.12538201 5.36343622 0.000000
0.05950200 0.10925500 5.34892893 0.000000
0.10864700 0.07854600 5.26450300 0.000000
0.08836300 0.09410100 5.40686178 0.000000
0.06571500 0.08006200 5.38772011 0.000000
0.09342700 -0.05013700 5.24133205 0.000000
0.08014300 -0.03131300 5.44926214 0.000000
0.09090700 -0.01527500 5.45292187 0.000000
0.08513400 -0.03299700 5.23731899 0.000000
0.05206000 -0.04878600 5.43573284 0.000000
0.09131500 0.06008900 5.26074409 0.000000
0.07389700 0.06283400 5.40982723 0.000000
0.07056000 0.04484100 5.42158318 0.000000
0.06518300 0.04539900 5.41737604 0.000000
0.08898200 0.12598699 5.39510012 0.000000
0.07795200 0.09823100 5.28140879 0.000000
0.10974800 0.00632500 5.24762917 0.000000
0.12435100 0.00819200 5.24805021 0.000000
0.13906901 0.01351200 5.24897480 0.000000
0.11523500 0.01900300 5.45464182 0.000000
0.11696200 0.03282400 5.45130301 0.000000
0.10666100 0.03055500 5.44854784 0.000000
0.13616800 0.01008300 5.46406603 0.000000
0.14224100 0.03052100 5.25187016 0.000000
0.14867599 0.03409900 5.25355196 0.000000
0.15463901 0.03141300 5.25312996 0.000000
0.18329801 0.04544500 5.47188282 0.000000
0.20463000 0.06356000 5.47692394 0.000000
0.20193800 0.02729600 5.48102999 0.000000
0.19056800 0.04516700 5.47450113 0.000000
0.21538800 0.02934200 5.48551702 0.000000
0.08849000 -0.11524900 5.22839022 0.000000
0.10171300 -0.13519201 5.23248482 0.000000
0.05869200 -0.13736500 5.41211081 0.000000
0.05611800 -0.14990599 5.40258312 0.000000
0.08623900 -0.13467599 5.22235584 0.000000
0.03224400 -0.12427700 5.40592813 0.000000
0.83339298 0.46424499 4.66310596 0.000000
0.56538302 0.50141603 4.67454910 0.000000
0.54370499 0.50067198 4.66052103 0.000000
0.85087103 0.47340101 4.66216183 0.000000
0.62971902 0.50228000 4.67858219 0.000000
0.63702703 0.51558399 4.64970589 0.000000
0.64681798 0.50019902 4.66065311 0.000000
0.64275497 0.51123601 4.64915705 0.000000
0.78293103 0.49923801 4.61620283 0.000000
0.66223103 0.47073701 4.68543196 0.000000
0.65339297 0.49878401 4.65457201 0.000000
0.67382997 0.48638001 4.64735222 0.000000
0.77552199 0.48480099 4.60856390 0.000000
0.76331699 0.50927299 4.60177898 0.000000
0.65366900 0.50041902 4.53369999 0.000000
0.65545702 0.49176499 4.52910519 0.000000
0.83301902 0.54518199 4.49456596 0.000000
0.82538998 0.51493400 4.49665308 0.000000
0.82144397 0.49755499 4.49747992 0.000000
0.83076102 0.48601601 4.48783684 0.000000
0.83915102 0.52210200 4.48595524 0.000000
0.68089300 0.49762601 4.57192612 0.000000
0.68297702 0.48664901 4.57082081 0.000000
0.67736799 0.49509299 4.55941105 0.000000
0.85165799 0.45725399 4.46581078 0.000000
0.79950899 0.51009500 4.51831484 0.000000
0.78957802 0.49849099 4.52677584 0.000000
0.62742198 0.45694000 4.71785593 0.000000
0.60158300 0.47843400 4.69994783 0.000000
0.60675400 0.47000101 4.70744324 0.000000
0.59997803 0.46076199 4.71682978 0.000000
0.80442297 0.47550499 4.65472603 0.000000
0.60000199 0.51113999 4.67996979 0.000000
0.62114501 0.48386401 4.69651079 0.000000
0.80367899 0.49169001 4.65517712 0.000000
0.91040498 0.49317101 4.62215185 0.000000
0.92010599 0.49991101 4.60945415 0.000000
0.89336699 0.54273099 4.62462187 0.000000
0.91784698 0.51028699 4.60881901 0.000000
