0.06974300 0.74667102 7.61071396 0.000000
0.06793400 0.74379700 7.61583185 0.000000
0.29657000 1.07863200 7.52428293 0.000000
-0.22017200 1.11480498 7.55372715 0.000000
-0.22622199 1.13163996 7.54274797 0.000000
0.35896200 1.08913004 7.52933216 0.000000
0.36054999 1.08784294 7.52887917 0.000000
0.29177099 1.08121502 7.49966097 0.000000
-0.20569500 1.09286499 7.56456900 0.000000
0.30998501 1.10333598 7.48095798 0.000000
-0.20849100 1.14190996 7.55108500 0.000000
0.32747599 1.07998896 7.53305912 0.000000
-0.23475499 1.13983095 7.51538181 0.000000
-0.21934600 1.09973300 7.49144888 0.000000
-0.71705800 0.95942801 8.09720421 0.000000
-0.72482699 0.95180798 8.09826469 0.000000
-0.91564602 0.91451800 7.75057411 0.000000
-0.70060998 0.99451500 8.09425640 0.000000
-0.71065199 1.01911104 8.09424019 0.000000
-0.91661400 0.94656003 7.74539995 0.000000
-0.66970497 1.07558799 8.02102089 0.000000
-0.85048401 1.03541505 7.75446987 0.000000
-0.85301602 1.03320599 7.74780989 0.000000
-0.66351199 1.07271898 8.02975273 0.000000
-0.85548598 1.05068195 7.73920679 0.000000
-0.85753101 1.05195296 7.73395777 0.000000
-0.69716501 0.98912001 8.02085495 0.000000
-0.70947498 1.00067604 8.01629734 0.000000
-0.85525000 0.99026698 7.78409719 0.000000
-0.68631399 1.01057196 8.02226830 0.000000
-0.85181099 0.98844701 7.77034187 0.000000
-0.66582501 1.08353400 8.07804489 0.000000
-0.66796201 1.05834198 8.07430077 0.000000
-0.90590501 1.05015397 7.71571207 0.000000
-0.90161800 1.03908503 7.71748209 0.000000
-0.68327302 1.04635000 8.08860016 0.000000
-0.92254400 1.03542697 7.72300005 0.000000
-0.90826499 1.00412703 7.72695208 0.000000
-0.75531203 0.95045102 8.04181957 0.000000
-0.75206703 0.95993203 8.03860378 0.000000
-0.89013302 0.90097702 7.81700420 0.000000
-0.90602797 0.88349301 7.81900597 0.000000
-0.74725902 0.95750397 8.02995110 0.000000
-0.75402302 0.99632901 8.05064011 0.000000
-0.87697601 0.92737198 7.81355190 0.000000
-0.87719297 0.92663300 7.81365824 0.000000
-0.66576898 1.02477801 8.04237270 0.000000
-0.67104101 0.98527497 8.04197407 0.000000
-0.86036098 0.95105898 7.73947477 0.000000
-0.85977799 0.99315202 7.73586178 0.000000
-0.67483997 0.96695900 8.05908966 0.000000
-0.67154098 0.99471301 8.05393791 0.000000
-0.86897802 0.96152002 7.73505020 0.000000
-0.86995202 0.95218003 7.73491192 0.000000
-0.93128902 0.95683497 7.79662085 0.000000
-0.75691098 1.05451703 8.07241535 0.000000
-0.93515497 1.00437796 7.80030298 0.000000
-0.73031598 1.07059598 8.09323406 0.000000
-0.73261499 1.07118106 8.09247780 0.000000
-0.93837899 1.00508201 7.76082993 0.000000
-0.72248203 1.02650106 8.09383869 0.000000
-0.72871101 1.03459299 8.09222031 0.000000
-0.93172097 0.96966201 7.76945210 0.000000
-0.75541800 1.02573299 8.05631733 0.000000
-0.75217199 1.04857302 8.04848194 0.000000
-0.92003900 0.97423601 7.80701017 0.000000
-0.75912201 1.01915097 8.07067299 0.000000
-0.92853498 0.96741498 7.80427790 0.000000
-0.73592299 0.99708599 8.02598572 0.000000
-0.73629498 0.97200900 8.02524853 0.000000
-0.85952401 0.91891903 7.80336905 0.000000
-0.87565601 0.95336699 7.80835390 0.000000
-0.70479000 1.03868306 8.01447010 0.000000
-0.86090302 0.98441702 7.79134989 0.000000
-0.85816503 0.94980597 7.79653502 0.000000
-0.84388697 1.14261901 7.67826605 0.000000
-0.62165499 1.20286202 7.99678898 0.000000
-0.62417799 1.19301403 7.99944496 0.000000
-0.60679400 1.20879698 8.07507706 0.000000
0.25031900 -0.01227500 7.23490191 0.000000
0.27167100 -0.01571700 7.25207376 0.000000
0.25556600 -0.01853500 7.25260401 0.000000
0.22011000 0.02587500 7.23742819 0.000000
0.24164000 -0.00172900 7.23246098 0.000000
0.24810900 0.91377801 7.47597599 0.000000
0.25644499 0.92573297 7.47497177 0.000000
-0.14654800 0.98368800 7.55204582 0.000000
-0.15137100 0.99696201 7.55329084 0.000000
0.27399600 0.96566701 7.47199488 0.000000
-0.15800400 0.98465300 7.56067514 0.000000
0.24080899 0.93287897 7.48279619 0.000000
-0.14294200 0.93286902 7.56154394 0.000000
0.33393699 1.07972205 7.45118523 0.000000
-0.15282600 1.08185196 7.53478622 0.000000
0.31886199 1.04201496 7.45940495 0.000000
-0.16422300 1.07136703 7.55428410 0.000000
0.32300201 0.11904700 7.29659796 0.000000
0.31101799 0.14963201 7.31552887 0.000000
0.30625799 0.10844300 7.29890919 0.000000
0.17698200 0.16078500 7.22817898 0.000000
0.30502200 0.08561100 7.29421616 0.000000
0.30715799 0.07822600 7.29218578 0.000000
0.19687600 0.09636600 7.23362207 0.000000
0.28169599 0.04822600 7.28546715 0.000000
0.21663301 0.05300400 7.24869394 0.000000
0.28852499 0.02681400 7.27367592 0.000000
0.38321900 0.31259900 7.00803900 0.000000
0.39056301 0.29404300 6.92574596 0.000000
0.29749599 0.33337101 6.98767614 0.000000
0.33325699 0.32629099 6.89674091 0.000000
0.37091500 0.30857301 7.25445604 0.000000
0.21007800 0.33144200 7.15140200 0.000000
0.20041201 0.32857099 7.16799879 0.000000
0.31919199 0.29459900 7.32314205 0.000000
0.17920700 0.29177999 7.21390581 0.000000
0.30321899 0.29656401 7.35209513 0.000000
0.30423999 0.29841301 7.34898186 0.000000
0.16779600 0.32591701 7.23649788 0.000000
0.23326799 0.38137901 7.23303699 0.000000
0.30992499 0.34699401 7.28469181 0.000000
0.29510799 0.36422101 7.28349209 0.000000
0.35877201 0.25375599 7.29200506 0.000000
0.18363300 0.25097799 7.19274807 0.000000
0.34470901 0.28437001 7.30441999 0.000000
0.18397100 0.25822499 7.19465017 0.000000
0.28747100 0.37530100 7.28170300 0.000000
0.32335001 0.31955001 7.30667114 0.000000
0.31189999 0.33039701 7.30607080 0.000000
0.19770800 0.34675100 7.22753000 0.000000
0.33129200 0.29161301 7.30999088 0.000000
0.31813699 0.31534600 7.31517601 0.000000
0.18353000 0.29897100 7.21141005 0.000000
0.19314601 0.19859301 7.17637205 0.000000
0.19028300 0.21340699 7.17690706 0.000000
0.27195200 0.39990899 7.27269506 0.000000
0.27125999 0.40783900 7.29455185 0.000000
0.20778900 0.40759200 7.25515413 0.000000
0.28737399 0.36981899 7.33476210 0.000000
0.17631000 0.36420500 7.24796820 0.000000
0.28645301 0.37603801 7.31965780 0.000000
0.18891300 0.38261700 7.25130415 0.000000
0.31919700 0.27394101 7.33102512 0.000000
0.16731800 0.27664700 7.22433376 0.000000
0.17644000 0.27359399 7.21361303 0.000000
0.31490800 0.23583201 7.33909702 0.000000
0.17570201 0.25587699 7.21211720 0.000000
0.29771999 0.34388399 7.32128191 0.000000
0.17921500 0.35414299 7.24285078 0.000000
0.30813801 0.32327399 7.32809401 0.000000
0.17012800 0.33596200 7.23892593 0.000000
0.27932200 0.39413801 7.30493498 0.000000
0.19008499 0.39088601 7.25445080 0.000000
0.28628799 0.37541801 7.29510784 0.000000
0.29155299 0.32789901 7.36399889 0.000000
0.28837100 0.31157801 7.37678719 0.000000
0.28675699 0.29214701 7.38758421 0.000000
0.28681099 0.31794500 7.37750006 0.000000
0.14664701 0.30428499 7.24617290 0.000000
0.14975600 0.30669501 7.24469519 0.000000
0.12970901 0.31858400 7.26116610 0.000000
0.24957000 0.34326601 7.45308590 0.000000
0.25340700 0.33650100 7.44585896 0.000000
0.26642501 0.33280101 7.41802692 0.000000
0.25511199 0.32972899 7.44329214 0.000000
0.12277500 0.33803701 7.27122879 0.000000
0.10230900 0.34001401 7.28577423 0.000000
0.14676900 0.33433801 7.25377893 0.000000
0.32201800 0.15786700 7.31111479 0.000000
0.32646301 0.14461300 7.30224991 0.000000
0.33053699 0.14708801 7.29801178 0.000000
0.17804700 0.15614900 7.22431612 0.000000
0.18510300 0.18101700 7.20241308 0.000000
0.33966801 0.15311600 7.28990507 0.000000
0.18647499 0.16363700 7.20233488 0.000000
-0.53474098 0.73927402 7.97720194 0.000000
-0.67886901 0.74599397 7.69536781 0.000000
-0.55921799 0.76453900 7.99168491 0.000000
-0.55740601 0.76487398 8.01066780 0.000000
-0.67811000 0.73208100 7.67458391 0.000000
-0.60290301 0.76363701 7.95877886 0.000000
-0.61154503 0.76709300 7.96022701 0.000000
-0.69734800 0.74563098 7.76977587 0.000000
-0.69345498 0.74832398 7.75996304 0.000000
-0.65936202 0.73207498 7.75905085 0.000000
-0.62721199 0.73091900 7.93814421 0.000000
-0.63186300 0.74752003 7.94551086 0.000000
-0.65954399 0.71147603 7.78820515 0.000000
-0.67966098 0.70822197 7.80675697 0.000000
-0.68313098 0.71312797 7.80297995 0.000000
-0.68738502 0.72973901 7.78482914 0.000000
-0.70253497 0.72541302 7.98977089 0.000000
-0.70165199 0.73185802 7.98849106 0.000000
-0.71382999 0.72126901 8.01311111 0.000000
-0.76627898 0.67989397 7.82364321 0.000000
-0.79364997 0.70568198 7.80445719 0.000000
-0.78281897 0.69506902 7.81215906 0.000000
-0.70244998 0.68467200 7.98260117 0.000000
-0.69617301 0.68557501 7.96485901 0.000000
-0.74409002 0.70034897 7.82345009 0.000000
-0.74474001 0.68864799 7.82607222 0.000000
-0.54445601 0.73445302 7.95118999 0.000000
-0.54108900 0.73864001 7.95655489 0.000000
-0.64241701 0.72531003 7.70075893 0.000000
-0.65762502 0.73420501 7.70606422 0.000000
-0.66797501 0.74052799 7.69807482 0.000000
-0.59484100 0.75876802 7.95770216 0.000000
-0.58012903 0.74395198 7.95053816 0.000000
-0.66599703 0.74035400 7.73035908 0.000000
-0.66127998 0.73676002 7.73170614 0.000000
-0.57587802 0.72581798 8.06479836 0.000000
-0.56609303 0.72738802 8.05731583 0.000000
-0.57670301 0.73783797 8.06222343 0.000000
-0.76754302 0.69011700 7.66880989 0.000000
-0.75146800 0.72008902 7.66441107 0.000000
-0.61726397 0.75299799 8.08261204 0.000000
-0.59775400 0.73695898 8.07656288 0.000000
-0.60855597 0.74512202 8.08013725 0.000000
-0.81117898 0.71434599 7.69269609 0.000000
-0.77587801 0.72191203 7.67552805 0.000000
-0.69037902 0.69701302 8.06981659 0.000000
-0.68700498 0.69137102 8.07119465 0.000000
-0.82025898 0.68081999 7.74685097 0.000000
-0.81397402 0.66475397 7.74569082 0.000000
-0.71349102 0.70352399 8.06119919 0.000000
-0.71500099 0.71338999 8.06314564 0.000000
-0.82236803 0.67939299 7.77125788 0.000000
-0.82359898 0.68885201 7.74618912 0.000000
-0.67413801 0.75065798 7.96406078 0.000000
-0.65603900 0.74923497 7.95520210 0.000000
-0.65181398 0.72953701 7.94467402 0.000000
-0.73771697 0.73211002 7.80302811 0.000000
-0.74709803 0.72474700 7.81314707 0.000000
-0.71474397 0.72050297 7.80699682 0.000000
-0.67762601 0.69905502 7.95156908 0.000000
-0.67747498 0.70019603 7.95167112 0.000000
-0.67228401 0.69347799 7.94664478 0.000000
-0.72296298 0.69243002 7.82435417 0.000000
-0.73334497 0.71360201 7.81626701 0.000000
-0.71091598 0.69119102 7.82289505 0.000000
0.09170900 0.18819600 7.48801422 0.000000
0.03948400 0.20359901 7.43895292 0.000000
0.08587300 0.17244500 7.48389196 0.000000
0.09008000 0.17822000 7.48497295 0.000000
0.05349300 0.17425500 7.44666815 0.000000
0.04687300 0.21452300 7.53630209 0.000000
-0.00766700 0.20547201 7.49938679 0.000000
-0.01000800 0.23623800 7.46576691 0.000000
0.04809500 0.20046701 7.52561808 0.000000
0.05207300 0.20427100 7.52637911 0.000000
0.00839200 0.19695900 7.48378086 0.000000
0.00751200 0.20072301 7.48130894 0.000000
0.31082001 0.32454100 6.91695118 0.000000
0.31189099 0.31241900 6.89705515 0.000000
0.35291299 0.22263101 7.29106379 0.000000
0.18827800 0.21784399 7.18214512 0.000000
0.34114000 0.23736601 7.30443382 0.000000
0.18705399 0.22714600 7.18430996 0.000000
0.32787600 0.18604399 7.31112385 0.000000
0.18401800 0.21543300 7.19922304 0.000000
0.18254600 0.22933801 7.20095015 0.000000
0.31578600 0.21195000 7.33279419 0.000000
0.32141000 0.20731001 7.32306004 0.000000
0.16773599 0.22902100 7.22384310 0.000000
0.36643299 0.13202800 7.07264519 0.000000
0.38880399 0.20103499 7.02181196 0.000000
0.29430300 0.20982599 6.93860102 0.000000
0.34511101 1.02675295 7.52500677 0.000000
-0.20736000 1.07547104 7.48894501 0.000000
0.33920100 1.02914405 7.53110123 0.000000
-0.18946800 1.02255297 7.48872614 0.000000
0.34463000 0.28168601 6.87223577 0.000000
0.29782999 0.18051200 7.34460402 0.000000
0.29196599 0.19038200 7.35384703 0.000000
0.30540201 0.18611000 7.33791685 0.000000
0.31139499 0.20126601 7.33569288 0.000000
0.16086900 0.18740600 7.24513102 0.000000
0.15093300 0.19511700 7.25732708 0.000000
0.16250101 0.20142500 7.23892117 0.000000
0.27296200 0.21698201 7.38854218 0.000000
0.26594999 0.18037000 7.37999296 0.000000
0.26502600 0.23550500 7.40811300 0.000000
0.27097899 0.22292200 7.39407301 0.000000
0.25777099 0.20238601 7.40158892 0.000000
0.26004201 0.18054400 7.38791990 0.000000
0.12083200 0.23698600 7.27090216 0.000000
0.13892700 0.18086299 7.27767181 0.000000
0.14177100 0.22267300 7.25582123 0.000000
0.14044499 0.21886601 7.25891018 0.000000
0.14602999 0.20354100 7.26009512 0.000000
-0.54242498 0.73307103 7.95029879 0.000000
-0.58122700 0.72713798 7.93289709 0.000000
-0.62439501 0.71235198 7.74615097 0.000000
-0.62236601 0.71208400 7.70700312 0.000000
-0.57009602 0.70924902 7.92061520 0.000000
-0.59036201 0.71594000 7.92188883 0.000000
-0.67542303 0.88186997 8.01971722 0.000000
-0.66147900 0.88495898 8.03625584 0.000000
-0.81134999 0.83956403 7.76752090 0.000000
-0.67887801 0.88565898 8.01708508 0.000000
-0.82359600 0.86620897 7.77112293 0.000000
0.20581301 0.91905600 7.52912188 0.000000
-0.18851200 0.89653498 7.56108999 0.000000
0.21214800 0.92575699 7.51957798 0.000000
-0.17703800 0.92708898 7.56803608 0.000000
0.25878799 1.00853801 7.51404476 0.000000
0.25926301 1.00338197 7.50372696 0.000000
-0.19601400 1.02379894 7.56649208 0.000000
0.13248700 0.82071602 7.56162500 0.000000
-0.16891199 0.77672303 7.53473186 0.000000
-0.16585501 0.78826702 7.54104185 0.000000
0.13778800 0.82646799 7.55845785 0.000000
-0.15617900 0.79142100 7.54318523 0.000000
-0.16390701 0.81309599 7.54709911 0.000000
-0.17982800 1.07430804 7.56493616 0.000000
0.30754799 1.06870103 7.46500397 0.000000
-0.16637300 1.10708499 7.55215120 0.000000
0.24068400 0.40425199 7.42538881 0.000000
0.26582101 0.39122999 7.36835289 0.000000
0.23633300 0.38597599 7.45274782 0.000000
0.23589200 0.40402800 7.43856716 0.000000
0.15568601 0.40644300 7.28556299 0.000000
0.15994300 0.40129799 7.27982092 0.000000
0.12169700 0.42413101 7.31919384 0.000000
0.27369800 0.38645899 7.35145617 0.000000
0.25959900 0.38023600 7.39871597 0.000000
0.25251299 0.37943801 7.41861486 0.000000
0.13279000 0.39082000 7.29185200 0.000000
0.15411100 0.37932399 7.26892900 0.000000
0.22974400 0.11705200 7.36503601 0.000000
0.26480201 0.10828400 7.32928324 0.000000
0.25456399 0.14382200 7.36759901 0.000000
0.25925201 0.13941100 7.36008120 0.000000
0.25114900 0.13738500 7.36491919 0.000000
0.15386400 0.13366100 7.30612516 0.000000
0.16505700 0.13814101 7.27659082 0.000000
0.15948901 0.12486600 7.30751514 0.000000
0.16843601 0.13461100 7.27485180 0.000000
0.27466199 0.15451600 7.35622883 0.000000
0.28325501 0.15352100 7.34600592 0.000000
0.27616701 0.13964300 7.34316111 0.000000
0.28244099 0.16248800 7.35378218 0.000000
0.27544299 0.13205899 7.33814001 0.000000
0.27192801 0.16563000 7.36776400 0.000000
0.18094601 0.13665099 7.25329018 0.000000
0.18385200 0.12740301 7.25774717 0.000000
0.17088699 0.15658900 7.24919605 0.000000
0.19259200 0.12638000 7.24600601 0.000000
0.20006800 0.10308700 7.25700283 0.000000
0.26065800 0.00008400 7.25749397 0.000000
0.26148701 0.01009600 7.27074623 0.000000
0.25796500 0.00114000 7.25136089 0.000000
0.22907200 0.00928100 7.29324722 0.000000
0.22379100 0.03165200 7.32249308 0.000000
0.23266000 0.02726300 7.31197214 0.000000
0.21724500 0.02282700 7.31984711 0.000000
0.21075700 0.02369900 7.30277920 0.000000
0.20468500 0.02009400 7.32190084 0.000000
0.19178399 0.03755300 7.32166576 0.000000
0.22256300 0.01953400 7.28377724 0.000000
0.26951799 0.28181899 7.41382313 0.000000
0.26045001 0.26899201 7.42479610 0.000000
0.26328200 0.29349801 7.42897987 0.000000
0.25680399 0.28868800 7.43843412 0.000000
0.26033500 0.24548800 7.41626978 0.000000
0.11001800 0.25635001 7.27701187 0.000000
0.12116400 0.29010400 7.26481915 0.000000
0.11984000 0.30000800 7.26490688 0.000000
0.29765001 0.25878799 7.36392403 0.000000
0.30917200 0.24584600 7.34766388 0.000000
0.29613900 0.25609800 7.36602497 0.000000
0.30192199 0.24195100 7.35781097 0.000000
0.14290100 0.26584399 7.24773884 0.000000
0.15444200 0.26648700 7.23714399 0.000000
0.13093200 0.26265800 7.25856304 0.000000
0.15929399 0.24214400 7.23108482 0.000000
0.21800900 0.47675401 7.33768511 0.000000
0.20333800 0.49243999 7.35133696 0.000000
0.22700600 0.46650201 7.32398319 0.000000
0.19288599 0.49283201 7.34270811 0.000000
0.21247700 0.46640101 7.30159998 0.000000
0.22762799 0.46896499 7.34892702 0.000000
0.24946100 0.44193700 7.28918505 0.000000
0.23354401 0.46331301 7.34471798 0.000000
0.21753700 0.44907099 7.28165102 0.000000
0.25136799 0.35931599 7.44020891 0.000000
0.27211899 0.36883801 7.38406277 0.000000
0.24392501 0.35793200 7.45869017 0.000000
0.14794700 0.37586999 7.27050591 0.000000
0.10125300 0.39251101 7.31395912 0.000000
0.10726500 0.39276901 7.31021500 0.000000
0.27026099 0.35331601 7.40025091 0.000000
0.26489699 0.34648201 7.41758919 0.000000
0.28462499 0.36088100 7.36100578 0.000000
0.16081700 0.35938999 7.25319386 0.000000
0.15697400 0.36125800 7.25636911 0.000000
0.23067300 0.43705100 7.41284609 0.000000
0.23172100 0.43095499 7.41833401 0.000000
0.24693500 0.42135599 7.38597584 0.000000
0.19060799 0.42379999 7.27088499 0.000000
0.14337000 0.44209900 7.31515503 0.000000
0.13988900 0.43746001 7.31354189 0.000000
0.24342200 0.41571799 7.40458488 0.000000
0.26469201 0.41673401 7.33884192 0.000000
0.27669001 0.39160499 7.33795691 0.000000
0.16705300 0.41677201 7.28314495 0.000000
0.14278001 0.43020499 7.30739880 0.000000
0.17867699 0.42073199 7.27727890 0.000000
0.22636700 0.46239099 7.38172007 0.000000
0.25081101 0.43742901 7.33169508 0.000000
0.23298900 0.46339101 7.35292816 0.000000
0.15757000 0.46223199 7.32284403 0.000000
0.18305101 0.46443701 7.30838680 0.000000
0.16929200 0.47341800 7.32317400 0.000000
0.26079401 0.42924899 7.31794119 0.000000
0.25946701 0.43204001 7.31225204 0.000000
0.20391101 0.43416399 7.27306986 0.000000
0.19905700 0.42633700 7.26842785 0.000000
0.24248201 0.09072000 7.33812618 0.000000
0.22111700 0.09954400 7.36296797 0.000000
0.22001100 0.08829400 7.35947323 0.000000
0.16915500 0.10575400 7.31053686 0.000000
0.18866600 0.09755700 7.28403711 0.000000
0.18495600 0.07630300 7.29902983 0.000000
0.24462999 0.06195900 7.32338905 0.000000
0.26304701 0.06642800 7.30664587 0.000000
0.25570700 0.03447100 7.29881907 0.000000
0.25338700 0.06510200 7.31591606 0.000000
0.26259300 0.03282000 7.29096317 0.000000
0.24364200 0.04855800 7.31796408 0.000000
0.22691400 0.03188600 7.25986004 0.000000
0.21894300 0.04279400 7.26592493 0.000000
0.19024800 0.05963800 7.29943705 0.000000
0.19544500 0.07374500 7.28443384 0.000000
0.22739600 0.34284201 7.48675489 0.000000
0.23344401 0.33321401 7.47798777 0.000000
0.22725201 0.32994699 7.48710823 0.000000
0.21018800 0.33616099 7.51207209 0.000000
0.07592600 0.33586699 7.30410004 0.000000
0.06948100 0.35252899 7.31382990 0.000000
0.08220300 0.32863799 7.29719877 0.000000
0.20812200 0.36233300 7.52038813 0.000000
0.20703401 0.36607599 7.52303505 0.000000
0.19659001 0.34875199 7.53447819 0.000000
0.20744500 0.35787201 7.52025414 0.000000
0.05456700 0.39852101 7.33495522 0.000000
0.06855100 0.36542201 7.31813383 0.000000
0.05798300 0.40428299 7.33345079 0.000000
0.24541700 0.23621400 7.42892408 0.000000
0.23277999 0.21646801 7.42818689 0.000000
0.22183099 0.19866100 7.42719316 0.000000
0.23487800 0.22563700 7.43129396 0.000000
0.25358599 0.22993200 7.41974783 0.000000
0.22502100 0.19148999 7.42121887 0.000000
0.08615100 0.22744900 7.32628822 0.000000
0.10877700 0.19310400 7.31412315 0.000000
0.10392700 0.21670300 7.30552578 0.000000
0.09404300 0.21095100 7.32516289 0.000000
0.10769100 0.19805799 7.31242514 0.000000
0.10087500 0.22063699 7.30765009 0.000000
0.22196200 0.23630400 7.44745398 0.000000
0.21852501 0.23403500 7.44868708 0.000000
0.19800600 0.24057101 7.46915197 0.000000
0.18736400 0.24094400 7.47779799 0.000000
0.19252600 0.24617700 7.47713709 0.000000
0.20311800 0.22586600 7.45552206 0.000000
0.06215000 0.25919801 7.34076977 0.000000
0.07190700 0.24722400 7.33426809 0.000000
0.08421000 0.25108999 7.31236076 0.000000
0.06009300 0.24381100 7.35508823 0.000000
0.05577200 0.26961899 7.34314585 0.000000
0.36961299 0.26407599 7.27223778 0.000000
0.36470899 0.29017401 7.27673197 0.000000
0.18703900 0.26511800 7.17250681 0.000000
0.38663301 0.28338701 7.21276808 0.000000
0.20130000 0.28854200 7.12871599 0.000000
0.38940999 0.26561001 7.20456505 0.000000
0.19838800 0.27018699 7.12287617 0.000000
0.18398800 0.19394401 7.15471315 0.000000
0.36897501 0.18991300 7.25252295 0.000000
0.18592300 0.20828199 7.15482283 0.000000
0.38947600 0.20526300 7.19926596 0.000000
0.19374000 0.21136300 7.11042404 0.000000
0.39105099 0.17117199 7.17914486 0.000000
0.19667700 0.20269901 7.10121107 0.000000
0.23796400 0.37334400 7.22368383 0.000000
0.30579600 0.36107400 7.18142796 0.000000
0.31184599 0.35978699 7.19481611 0.000000
0.32084700 0.34861901 7.26331186 0.000000
0.31187701 0.34869799 7.27583694 0.000000
0.33401999 0.35326499 7.23309517 0.000000
0.34762800 0.34960601 7.21082211 0.000000
0.36699700 0.09559100 7.23382807 0.000000
0.18089600 0.10646200 7.15310192 0.000000
0.16810800 0.09969600 7.16879892 0.000000
0.38917199 0.11429500 7.18472099 0.000000
0.18789700 0.11121000 7.11146593 0.000000
0.19206201 0.10138100 7.09368610 0.000000
0.28787699 -0.01054900 7.17651892 0.000000
0.28880700 -0.01733100 7.18364477 0.000000
0.30054101 0.36159801 7.26280785 0.000000
0.29831600 0.36291200 7.27486277 0.000000
0.25109601 0.35675400 7.16729593 0.000000
0.25291201 0.35606799 7.16200304 0.000000
0.31341699 0.03143100 7.22536421 0.000000
0.23031799 0.03092600 7.16906786 0.000000
0.30436400 0.01669700 7.20933390 0.000000
0.23793600 0.01381400 7.18414593 0.000000
0.24251200 0.00153100 7.18849993 0.000000
0.34089500 0.05022200 7.16005611 0.000000
0.33198699 0.05151300 7.13464785 0.000000
0.24874300 0.04755000 7.11479998 0.000000
0.33522600 0.33680701 7.27092123 0.000000
0.32749599 0.33033001 7.28723192 0.000000
0.21022999 0.34291500 7.19836283 0.000000
0.22959501 0.34411800 7.14500093 0.000000
0.36797199 0.33244500 7.23255777 0.000000
0.37484500 0.14922599 7.23000479 0.000000
0.18069400 0.14052700 7.15205383 0.000000
0.17775200 0.15503100 7.15786886 0.000000
0.39064899 0.16363899 7.18198013 0.000000
0.38995400 0.13219699 7.19249201 0.000000
0.18739200 0.13912500 7.10811901 0.000000
0.37407699 0.25067300 7.26252699 0.000000
0.36473799 0.23952401 7.27852297 0.000000
0.18813300 0.24238700 7.17003679 0.000000
0.38805801 0.25621501 7.21906090 0.000000
0.19319800 0.26084000 7.12845802 0.000000
0.39183700 0.21098800 7.18495417 0.000000
0.19811501 0.23386100 7.10785818 0.000000
0.30004001 0.00673800 7.18670893 0.000000
0.25959301 -0.02147800 7.18132782 0.000000
0.29086700 -0.02152900 7.20370007 0.000000
0.24852601 0.00249800 7.17899704 0.000000
0.32591799 0.04837500 7.13657618 0.000000
0.31176001 0.04047300 7.13479996 0.000000
0.27093500 0.04891400 7.10701990 0.000000
0.19846199 0.08141000 7.10467100 0.000000
0.20300101 0.07244000 7.11059189 0.000000
0.36627501 0.09347500 7.22315884 0.000000
0.18370999 0.09161200 7.15416479 0.000000
0.35580200 0.06885500 7.22550678 0.000000
0.18895800 0.05990200 7.16626787 0.000000
0.34687901 0.05301300 7.17241383 0.000000
0.21737599 0.05843800 7.11554003 0.000000
0.35321599 0.05681400 7.14842987 0.000000
0.21088400 0.06811900 7.08811712 0.000000
0.34320700 0.05209900 7.22192097 0.000000
0.18561700 0.04686600 7.18128681 0.000000
0.32058600 0.03565900 7.23069096 0.000000
0.21345800 0.03784100 7.18053484 0.000000
0.35983601 0.29240099 7.28387022 0.000000
0.19238800 0.30161399 7.16277218 0.000000
0.35031700 0.30783600 7.28852797 0.000000
0.37434101 0.32564500 7.22214079 0.000000
0.21284400 0.33162299 7.14565992 0.000000
0.38205600 0.30270499 7.21806002 0.000000
0.20455500 0.30227900 7.13161278 0.000000
0.39021400 0.24334800 7.07425880 0.000000
0.24888000 0.23460600 7.02318001 0.000000
0.39239699 0.26052800 7.04567909 0.000000
0.26497599 0.25680599 6.99850321 0.000000
0.26923600 0.31106400 7.04215813 0.000000
0.37610900 0.31529301 7.08295918 0.000000
0.39046001 0.20731300 7.08234215 0.000000
0.39219201 0.23672600 7.05763721 0.000000
0.25496000 0.21771701 7.01124477 0.000000
0.34894699 0.18446100 6.91631699 0.000000
0.19461700 0.50797802 7.37728405 0.000000
0.20831700 0.49277899 7.37507105 0.000000
0.17347600 0.51258498 7.35378981 0.000000
0.17211300 0.50633103 7.34535885 0.000000
0.19106500 0.50814998 7.36364222 0.000000
0.17481600 0.52901798 7.37625599 0.000000
0.05414900 0.18332900 7.48135281 0.000000
0.04465600 0.18010201 7.51139021 0.000000
0.03035200 0.18803400 7.48233223 0.000000
0.29462799 0.06066600 7.09784508 0.000000
0.30902600 0.07660200 7.07288694 0.000000
0.34424201 0.33046001 7.04959679 0.000000
0.33302400 0.32753000 7.03241682 0.000000
0.34790799 0.29533300 6.89894676 0.000000
0.34776101 0.32030001 6.96857214 0.000000
0.37151101 0.31501400 6.95296621 0.000000
0.32561100 0.31717899 6.95236397 0.000000
0.28936699 0.33370599 7.22043180 0.000000
0.25562900 0.30544800 7.19569302 0.000000
0.26269501 0.31047601 7.19933701 0.000000
0.28473601 0.31650999 7.21305990 0.000000
0.28201100 0.30916500 7.21077681 0.000000
0.27223000 0.31468600 7.20590401 0.000000
0.27663699 0.28331700 7.20394993 0.000000
0.32055199 0.34477600 7.12306786 0.000000
0.29474601 0.34138501 7.09558392 0.000000
0.30273300 0.34803700 7.12324095 0.000000
0.30866799 0.04714400 7.12242508 0.000000
0.29414001 0.04325900 7.12994385 0.000000
0.27360699 0.03454000 7.13040400 0.000000
0.24467599 0.38214099 7.23070812 0.000000
0.26872900 0.37487599 7.22122622 0.000000
0.00981100 0.72772402 7.59288597 0.000000
0.01487500 0.72828102 7.58548212 0.000000
-0.00001200 0.72471702 7.58029413 0.000000
0.29839900 0.34611201 7.19240904 0.000000
0.33578700 0.33480501 7.08533478 0.000000
0.31229100 0.34111199 7.13659906 0.000000
0.27587500 0.34547400 7.16650820 0.000000
0.26066801 0.34658301 7.17941618 0.000000
0.25836399 0.34774601 7.18981409 0.000000
0.28489500 0.34352699 7.14791012 0.000000
0.28851199 0.34687901 7.18111086 0.000000
0.32319999 0.32892799 7.05249882 0.000000
0.28548801 0.34722999 7.18478918 0.000000
0.30024901 0.33819899 7.11640215 0.000000
0.31490400 0.32946900 7.04137516 0.000000
0.30054301 0.33778799 7.11167383 0.000000
0.11400400 0.70158100 7.53092480 0.000000
0.11211800 0.69823098 7.52405596 0.000000
-0.01173500 0.70677501 7.46964407 0.000000
0.09560700 0.70080400 7.47518778 0.000000
0.08954200 0.70058298 7.49078608 0.000000
0.08267900 0.70276999 7.48270178 0.000000
0.09522800 0.69757003 7.51016998 0.000000
0.04821200 0.70701998 7.48719883 0.000000
0.04225400 0.70620900 7.48031092 0.000000
0.06628200 0.70536703 7.48260307 0.000000
0.33311400 0.33525100 7.06495523 0.000000
0.29806700 0.33404100 7.05656624 0.000000
0.31481600 0.34095499 7.08569002 0.000000
0.38023901 0.29557899 6.88008022 0.000000
0.36432901 0.30690700 6.87831879 0.000000
0.26034701 0.42520601 7.28613997 0.000000
0.25683200 0.43595099 7.29413795 0.000000
0.24784300 0.42875701 7.26417685 0.000000
0.22660500 0.43723100 7.26894903 0.000000
0.37988800 0.28689399 6.87767887 0.000000
0.35488001 0.27573299 6.87041903 0.000000
0.40046701 0.20407300 6.95797205 0.000000
0.39789200 0.21975601 6.99289989 0.000000
0.38726100 0.19124000 6.94047308 0.000000
0.32563400 0.20523000 6.89940596 0.000000
0.27515501 0.25662100 6.96903610 0.000000
0.39411601 0.26544401 7.03636312 0.000000
0.26970401 0.26394901 6.98737001 0.000000
0.40385699 0.25654000 6.99387217 0.000000
0.28231499 0.24885300 6.95049477 0.000000
0.28026301 0.24010000 6.95639896 0.000000
0.30780500 0.25542000 6.89108706 0.000000
0.41189501 0.27489501 6.90769196 0.000000
0.29320401 0.25118899 6.91871119 0.000000
0.33604899 0.30833000 6.88107109 0.000000
0.41405401 0.29706299 6.93219280 0.000000
0.32145700 0.30229199 6.88488197 0.000000
0.41708401 0.26107001 6.93918419 0.000000
0.40801001 0.25066400 6.97361898 0.000000
0.28697300 0.24649100 6.93661499 0.000000
0.39308101 0.22679900 7.02856922 0.000000
0.39045599 0.21332000 7.05516386 0.000000
0.26311499 0.21247700 7.00031614 0.000000
0.24626400 0.17570899 7.03415680 0.000000
0.38696599 0.19578201 7.06340981 0.000000
0.36681601 0.12948000 7.07532310 0.000000
0.24243400 0.15154900 7.04621792 0.000000
0.37579000 0.15428600 7.08221292 0.000000
0.29076299 0.20213801 6.95456600 0.000000
0.38083199 0.18137600 7.02622604 0.000000
0.37407899 0.16218901 7.05031204 0.000000
0.27704200 0.20409299 6.98124599 0.000000
0.39842501 0.22517300 6.99549818 0.000000
0.27705699 0.23072700 6.96886110 0.000000
-0.19313300 1.15359402 7.43215322 0.000000
-0.14237501 1.14471102 7.44274712 0.000000
-0.11907500 1.16311002 7.45772791 0.000000
0.43629900 1.14435995 7.42430115 0.000000
0.45056200 1.13674605 7.45447683 0.000000
0.43987700 1.11569798 7.47421694 0.000000
-0.12168800 1.15922999 7.47361898 0.000000
-0.83364397 1.16952503 7.75998116 0.000000
-0.89235801 1.13964796 7.78389215 0.000000
-0.16030800 1.13744998 7.53839302 0.000000
-0.15540200 1.14361596 7.53084898 0.000000
-0.66000003 1.18011606 7.99325705 0.000000
-0.70477599 1.17881799 8.08469009 0.000000
-0.74348301 1.13759696 8.04093266 0.000000
-0.73060203 1.14824998 8.02846527 0.000000
-0.71160001 1.16631198 8.01592064 0.000000
-0.65311998 1.17991495 8.09253979 0.000000
-0.90478402 1.13811398 7.68003607 0.000000
-0.87640101 1.11430097 7.78540611 0.000000
-0.68082398 0.73327702 8.08165836 0.000000
-0.68703699 0.75452900 8.08460426 0.000000
-0.84587198 0.73383600 7.72695923 0.000000
-0.66475302 0.76515502 8.09055042 0.000000
-0.65952498 0.77203298 8.09243870 0.000000
-0.82333702 0.70339102 7.72266912 0.000000
-0.82150197 0.71395999 7.70533800 0.000000
-0.63145602 0.76561803 8.08753872 0.000000
-0.81524700 0.74183398 7.69432592 0.000000
-0.62527901 0.76697999 8.08430958 0.000000
-0.60694802 0.76480901 8.07416439 0.000000
-0.79380101 0.72858399 7.68421221 0.000000
-0.80243599 0.72837502 7.68835402 0.000000
-0.51491600 0.23928000 7.81275511 0.000000
-0.54105800 0.72758400 8.03232098 0.000000
-0.54481900 0.73933798 8.02377796 0.000000
-0.70663399 0.74111199 7.67252207 0.000000
-0.70345402 0.71684903 7.65884399 0.000000
-0.68181503 0.72645801 7.66598415 0.000000
-0.54440397 0.73104697 8.03474998 0.000000
-0.54995197 0.73618299 8.03718662 0.000000
-0.72814202 0.73305601 7.66870689 0.000000
-0.74929500 0.72910303 7.66815901 0.000000
-0.64760500 0.82945502 7.99579906 0.000000
-0.74133801 0.78720301 7.74941683 0.000000
-0.60929799 0.81001198 8.00186253 0.000000
-0.61562598 0.81971401 8.00930882 0.000000
-0.72920501 0.77637601 7.71152687 0.000000
-0.62076199 0.79923701 7.97673988 0.000000
-0.69966602 0.75380403 7.75538492 0.000000
-0.70096999 0.76141298 7.74484301 0.000000
-0.64188600 0.79857999 7.97527695 0.000000
-0.63542700 0.80098498 7.97692823 0.000000
-0.71569699 0.75085402 7.77863121 0.000000
-0.64677101 0.81980598 8.08325958 0.000000
-0.83406001 0.77632099 7.70764399 0.000000
-0.81521201 0.78223801 7.70530081 0.000000
-0.60253698 0.80704099 8.04157639 0.000000
-0.80307800 0.76985300 7.69622183 0.000000
-0.70160103 0.76502198 7.98154497 0.000000
-0.69576001 0.75319999 7.97553205 0.000000
-0.71222198 0.77496201 7.99635696 0.000000
-0.79613000 0.73774499 7.81012917 0.000000
-0.72580302 0.74724799 8.02683067 0.000000
-0.72092199 0.74742800 8.01954365 0.000000
-0.72697598 0.75922900 8.02429104 0.000000
-0.82262200 0.73510599 7.81041622 0.000000
-0.83469802 0.73719001 7.81147194 0.000000
-0.75593197 0.78793103 8.06366444 0.000000
-0.85553998 0.74540800 7.81494093 0.000000
-0.74838901 0.78006899 8.05571079 0.000000
-0.86001599 0.72721201 7.79808092 0.000000
-0.87503999 0.73033202 7.79444122 0.000000
-0.72951698 0.78530800 8.08432102 0.000000
-0.86672801 0.72596502 7.78165913 0.000000
-0.67418098 0.76851600 7.96907282 0.000000
-0.66888100 0.78706098 7.97133589 0.000000
-0.75274998 0.73546702 7.80692387 0.000000
-0.74730599 0.73339701 7.80482483 0.000000
-0.69103998 0.77984601 7.98025608 0.000000
-0.69816899 0.76296002 7.97894907 0.000000
-0.77280802 0.76005101 7.80448103 0.000000
-0.70914203 0.80259800 8.09445095 0.000000
-0.71015000 0.80359602 8.09457970 0.000000
-0.86111301 0.75187498 7.72954321 0.000000
-0.67735302 0.78152502 8.09317398 0.000000
-0.70431101 0.77032101 8.08415127 0.000000
-0.86185998 0.74219501 7.74361515 0.000000
-0.67618501 0.79976398 8.09630203 0.000000
-0.84555000 0.74781501 7.71817923 0.000000
-0.66007400 0.80527598 8.09068584 0.000000
-0.65548903 0.79879397 8.08927536 0.000000
-0.84394199 0.77194703 7.71199894 0.000000
-0.63969302 0.84283799 8.04779911 0.000000
-0.80629098 0.80435300 7.71900082 0.000000
-0.63652700 0.84214902 8.02357388 0.000000
-0.77958500 0.80794698 7.73128891 0.000000
-0.69909698 0.82813501 7.98913288 0.000000
-0.79413599 0.79969603 7.80535316 0.000000
-0.78446698 0.80503798 7.78623390 0.000000
-0.76162797 0.83010203 8.03551102 0.000000
-0.87794298 0.78569901 7.83021021 0.000000
-0.75566000 0.82552898 8.02974701 0.000000
-0.84650701 0.79208601 7.82882214 0.000000
-0.65589499 0.84735000 8.07574272 0.000000
-0.85446000 0.78959900 7.71906185 0.000000
-0.63210303 0.83476901 8.05595779 0.000000
-0.83798498 0.79162401 7.71359491 0.000000
-0.74732500 0.82473499 8.09757423 0.000000
-0.88872600 0.75786400 7.77053499 0.000000
-0.72382897 0.81619400 8.09671211 0.000000
-0.89420903 0.77586901 7.75711203 0.000000
-0.91174698 0.76791298 7.81614113 0.000000
-0.74230200 0.79884797 8.08565998 0.000000
-0.88700497 0.74965000 7.78205204 0.000000
-0.81596798 0.80311102 7.81817818 0.000000
-0.73088902 0.82476801 8.00421429 0.000000
-0.82466799 0.78473198 7.82270002 0.000000
-0.67197198 0.84379601 7.99822187 0.000000
-0.63849801 0.83087701 8.00461388 0.000000
-0.77136499 0.80572897 7.76429701 0.000000
-0.71118802 0.83127803 8.10209560 0.000000
-0.87739599 0.78436100 7.73065281 0.000000
-0.67966998 0.83679700 8.09898853 0.000000
0.27509999 0.14746000 7.01922894 0.000000
0.26799700 0.15269201 7.02511978 0.000000
0.28859201 0.17021400 6.98744011 0.000000
0.27638501 0.18746200 6.99281120 0.000000
0.24436601 0.13782300 7.05077696 0.000000
0.35160401 -0.02373400 7.32027102 0.000000
0.10030300 -0.01838000 7.26417112 0.000000
0.10437800 -0.01622600 7.26355600 0.000000
0.07275000 -0.03152800 7.26457214 0.000000
0.40087500 -0.02325700 7.32662916 0.000000
0.08431800 -0.00322300 7.23056793 0.000000
0.40660599 -0.00607500 7.33193016 0.000000
0.05706100 -0.00160500 7.23612404 0.000000
0.41991901 -0.00284400 7.38033104 0.000000
0.02910200 0.03014900 7.25874281 0.000000
0.34963500 0.14340100 7.26507711 0.000000
0.18072300 0.12289200 7.19400311 0.000000
0.34261999 0.10273200 7.27056503 0.000000
0.37140700 0.32075000 6.92944622 0.000000
0.35469401 0.31412801 6.91326523 0.000000
0.34664199 0.33044800 6.93534422 0.000000
0.28285500 0.01796500 7.16154194 0.000000
0.30060399 0.03306300 7.14341402 0.000000
0.27644500 0.02364600 7.14717913 0.000000
0.46787399 1.15976095 7.46462679 0.000000
0.41396701 1.16408396 7.41177082 0.000000
-0.10477900 1.19045103 7.46110010 0.000000
-0.19236000 1.18609798 7.40964985 0.000000
-0.11268600 1.18241000 7.42041397 0.000000
-0.80794901 1.15829694 7.71359682 0.000000
-0.61094302 1.20949197 8.07975578 0.000000
-0.62191701 1.22111702 8.09268475 0.000000
-0.60306603 1.18067300 8.04357910 0.000000
-0.60876101 1.17438996 8.05321503 0.000000
-0.61273301 1.17573094 8.00859642 0.000000
-0.60052001 1.20119202 8.00722408 0.000000
0.40889600 0.21380500 6.93334293 0.000000
0.30024999 0.21898299 6.91306877 0.000000
0.41123199 0.22992900 6.95529699 0.000000
0.30206001 0.23047400 6.90308714 0.000000
0.18920800 0.16002600 7.16828585 0.000000
0.20369300 0.16312300 7.16863012 0.000000
0.36127400 0.10149100 7.28045177 0.000000
0.15435500 0.10769800 7.20634222 0.000000
0.11875500 0.07910400 7.21187782 0.000000
0.12638500 0.08129100 7.20426512 0.000000
0.37579900 0.06032800 7.33227205 0.000000
0.09643700 0.06501200 7.24505997 0.000000
0.11682200 0.07113600 7.24065208 0.000000
0.36859900 0.08371900 7.29966784 0.000000
0.14635800 0.08968800 7.20567608 0.000000
0.13259099 0.08547400 7.21144915 0.000000
0.43908900 0.00829100 7.36339903 0.000000
0.02250800 0.03124800 7.24239683 0.000000
0.02700300 0.03221600 7.22918177 0.000000
0.00876900 0.00228500 7.26189423 0.000000
-0.00121600 -0.02135800 7.26020288 0.000000
0.00249000 -0.00458400 7.24886084 0.000000
0.01801400 0.00414500 7.23623514 0.000000
0.07973100 -0.04127000 7.24835491 0.000000
0.38311601 -0.02524700 7.29350281 0.000000
0.11554700 -0.01756100 7.21693420 0.000000
0.09785200 -0.03421600 7.22884083 0.000000
0.09306400 -0.02889700 7.22276783 0.000000
0.35423100 0.30259800 6.87618494 0.000000
0.35143700 0.31548899 6.88289309 0.000000
0.22588800 0.15353701 7.05518913 0.000000
0.38200000 0.16074400 7.09480906 0.000000
0.37205699 0.18787700 6.91952801 0.000000
0.26591700 0.00036200 7.26039410 0.000000
0.27027601 0.01701200 7.27501917 0.000000
0.24523400 0.00378600 7.24845600 0.000000
0.29303101 0.35556000 7.14420795 0.000000
0.28597301 0.35554299 7.14538813 0.000000
0.27470601 0.36448500 7.19223595 0.000000
0.29833499 0.36212701 7.16951609 0.000000
0.27748400 0.36364800 7.18557119 0.000000
0.33279699 0.13116400 6.99920797 0.000000
0.32275999 0.13511001 6.99262905 0.000000
0.34847501 0.14644501 6.98158789 0.000000
0.14529300 0.67008001 7.48466778 0.000000
0.06917600 0.69432801 7.45340014 0.000000
0.14381599 0.68322003 7.51113605 0.000000
0.13998701 0.68445402 7.50706291 0.000000
0.13808499 0.68144703 7.49664783 0.000000
0.02345400 0.69695997 7.44743490 0.000000
0.04498900 0.70272499 7.46206903 0.000000
0.14036900 0.65978098 7.46976519 0.000000
0.07882000 0.67765403 7.44324398 0.000000
0.11709200 0.67211097 7.45326519 0.000000
0.12620300 0.66933101 7.46065807 0.000000
0.09663800 0.67857999 7.45008802 0.000000
-0.17696700 1.17747295 7.40883017 0.000000
0.44838101 1.13669705 7.45069695 0.000000
0.35626799 1.03688002 7.46435022 0.000000
-0.15276501 1.11115694 7.49467182 0.000000
0.43050501 1.15438998 7.41696405 0.000000
-0.15234999 1.12919199 7.49065399 0.000000
-0.19000900 1.11467302 7.47319794 0.000000
-0.21391401 1.14624500 7.46200180 0.000000
-0.16536500 1.10056102 7.48368311 0.000000
-0.15933400 1.06411397 7.48893690 0.000000
0.38573301 1.06618702 7.47733212 0.000000
0.36176899 1.03589594 7.47368288 0.000000
0.35618299 1.01958299 7.48215723 0.000000
0.35439700 1.01691496 7.48231602 0.000000
-0.15996300 1.07713604 7.48875380 0.000000
-0.23398800 1.14622700 7.50374079 0.000000
0.35240301 1.14806497 7.44040394 0.000000
0.36306700 1.16005898 7.43065310 0.000000
0.36825901 1.14577305 7.42797804 0.000000
0.39637101 1.12636805 7.52597380 0.000000
0.38108501 1.10048604 7.52251291 0.000000
-0.17104299 1.12511802 7.47270489 0.000000
0.40817499 1.09879196 7.49874401 0.000000
-0.13530500 1.14230597 7.47660398 0.000000
0.38270700 1.16597497 7.41793013 0.000000
-0.11650300 1.17620504 7.48280096 0.000000
0.32190001 1.12122595 7.49166489 0.000000
0.32911101 1.13138103 7.48440313 0.000000
0.30260000 0.95823199 7.54445601 0.000000
0.29960799 0.94883603 7.54569912 0.000000
0.32304600 0.97789800 7.47853422 0.000000
0.32527599 0.98260301 7.47812510 0.000000
-0.14649899 1.02858901 7.50817394 0.000000
0.30246699 0.92865700 7.48470783 0.000000
-0.13809800 0.98780799 7.50812387 0.000000
0.24976200 0.97693902 7.53456593 0.000000
-0.21150599 0.96211302 7.54886818 0.000000
-0.20525900 0.98211300 7.55816221 0.000000
0.26196399 1.00178099 7.49546003 0.000000
-0.18641300 1.00296497 7.56676197 0.000000
0.25355601 0.96904701 7.48719311 0.000000
-0.17503899 0.98911703 7.56565905 0.000000
0.32470700 0.95646298 7.51541185 0.000000
-0.16477700 0.99480402 7.48588085 0.000000
0.30828300 0.92347902 7.53249598 0.000000
-0.17529000 0.99340600 7.48542404 0.000000
-0.15058900 0.95516503 7.48264313 0.000000
0.30335599 0.89748102 7.50670004 0.000000
-0.12783299 0.93154597 7.48898506 0.000000
0.27621701 0.90630603 7.47818184 0.000000
-0.12535200 0.95193601 7.52470684 0.000000
-0.13147700 0.96872300 7.52747107 0.000000
0.26460999 0.93517798 7.55924082 0.000000
0.28082901 0.93313700 7.55689812 0.000000
-0.20658401 0.95433700 7.50662088 0.000000
-0.19677500 1.00971198 7.49151087 0.000000
0.30533299 0.95010197 7.54228687 0.000000
-0.19412801 0.99444401 7.49057817 0.000000
-0.21922199 1.00150096 7.53625011 0.000000
0.25438899 0.98103100 7.53559399 0.000000
-0.21332601 0.96598798 7.53598309 0.000000
0.28896001 1.00771201 7.54086685 0.000000
0.28198099 1.00412905 7.54052687 0.000000
-0.21303099 0.97107702 7.52271414 0.000000
0.22160400 0.94158202 7.52203894 0.000000
0.23711400 0.96063799 7.50529099 0.000000
-0.17790601 0.93579203 7.56800222 0.000000
-0.15809700 1.03109705 7.55353689 0.000000
-0.15236500 1.03398097 7.54290724 0.000000
0.30310401 0.99517602 7.46704721 0.000000
-0.15205801 1.01654100 7.54760599 0.000000
0.35382101 1.08804297 7.44439220 0.000000
0.37055501 1.13126802 7.42959785 0.000000
0.36199200 1.10087895 7.44088411 0.000000
0.44182599 1.12015402 7.48497009 0.000000
-0.13597700 1.16907597 7.40933895 0.000000
0.44698101 1.15011299 7.42503214 0.000000
-0.11276100 1.19236398 7.40980101 0.000000
-0.17054000 1.12699795 7.46924591 0.000000
0.46811199 1.16827404 7.45659494 0.000000
0.46012399 1.15545499 7.48478222 0.000000
-0.12315200 1.15588105 7.44248915 0.000000
-0.13894700 1.14082599 7.48608923 0.000000
0.43952700 1.11619496 7.46435785 0.000000
0.40698799 1.09269595 7.46227980 0.000000
-0.14336200 1.13542700 7.46627092 0.000000
-0.12954400 1.14950395 7.47560787 0.000000
-0.12216100 1.15743101 7.44063997 0.000000
-0.18405400 1.19194198 7.40382719 0.000000
-0.18613100 1.15454698 7.42702389 0.000000
-0.20808700 1.14332497 7.45738602 0.000000
0.42512101 1.15891004 7.52400208 0.000000
-0.20495200 1.16563404 7.43310690 0.000000
0.40151200 1.14533603 7.41656113 0.000000
0.39205199 1.16428697 7.41469479 0.000000
0.38265401 1.11954200 7.42890406 0.000000
0.39814499 1.08538103 7.48907089 0.000000
-0.19834700 1.10422802 7.47799492 0.000000
-0.15379100 1.13421595 7.47064114 0.000000
-0.16463999 1.05123496 7.48632479 0.000000
-0.16334300 1.03254700 7.48837805 0.000000
0.34161499 0.99026299 7.50493193 0.000000
0.36385801 1.03881705 7.50795412 0.000000
0.36372000 1.06384099 7.45382595 0.000000
-0.14773101 1.09955001 7.51066303 0.000000
-0.15074000 1.11427999 7.52478790 0.000000
0.33560300 1.04421198 7.45650101 0.000000
-0.15008800 1.10295498 7.52492094 0.000000
0.35826799 1.16162097 7.43624687 0.000000
0.34196800 1.14589703 7.45761681 0.000000
-0.10545300 1.20856404 7.43851900 0.000000
-0.16757500 1.20485997 7.40613413 0.000000
-0.19014500 1.19435203 7.40526104 0.000000
0.33420801 1.13926697 7.48187685 0.000000
-0.22387999 1.16594994 7.52456093 0.000000
-0.22903600 1.17523599 7.50406981 0.000000
0.34813699 1.15353405 7.44768095 0.000000
-0.11947600 1.21071804 7.49201679 0.000000
0.38220999 1.14938295 7.52966881 0.000000
-0.10253100 1.20069301 7.42611885 0.000000
0.43463200 1.17417395 7.51967812 0.000000
-0.18873300 1.20447397 7.52259302 0.000000
-0.14512099 1.22141004 7.50261593 0.000000
0.40301400 1.18918502 7.44907379 0.000000
0.41774300 1.18604803 7.48763800 0.000000
0.37593600 1.16046500 7.52333307 0.000000
-0.21091700 1.19303298 7.50460911 0.000000
0.43148899 1.17926395 7.51611280 0.000000
0.45045799 1.17930400 7.47843504 0.000000
-0.11576500 1.20523596 7.41463614 0.000000
-0.12379000 1.22410703 7.46162891 0.000000
0.38544899 1.18967998 7.42740488 0.000000
0.40860799 1.18421602 7.52186108 0.000000
0.35492000 1.16258097 7.46300077 0.000000
-0.16484199 1.21926606 7.50542116 0.000000
-0.14781199 1.22607005 7.46395779 0.000000
0.39140800 1.18042397 7.49892378 0.000000
0.38305900 1.17023504 7.51533079 0.000000
-0.20613500 1.19703305 7.50819111 0.000000
-0.12923300 1.22749102 7.47420120 0.000000
0.32237601 1.11358798 7.47032785 0.000000
0.32574001 1.12470996 7.46816301 0.000000
-0.22177200 1.18136203 7.45064020 0.000000
-0.13867401 1.22464597 7.46324587 0.000000
-0.14109001 1.22610795 7.48694992 0.000000
-0.15352800 1.22033894 7.44608021 0.000000
-0.17482500 1.22158301 7.44560099 0.000000
0.43010801 1.18356895 7.47999620 0.000000
-0.21227400 1.21695900 7.44724083 0.000000
0.44115999 1.18179905 7.46012783 0.000000
0.44275501 1.18154502 7.45611286 0.000000
0.34832600 1.15611303 7.45204020 0.000000
0.44088900 1.17934406 7.49793291 0.000000
-0.20295499 1.19706202 7.41465807 0.000000
-0.22419700 1.19511294 7.45535183 0.000000
0.38247499 1.16619599 7.52576208 0.000000
0.35416701 1.14298999 7.50988293 0.000000
0.44684500 1.18105102 7.44422579 0.000000
0.43853700 1.18389201 7.43474817 0.000000
0.31917500 1.09370005 7.46064186 0.000000
-0.18950100 1.13925397 7.55369902 0.000000
-0.19892700 1.09854198 7.56468678 0.000000
-0.16951500 1.16006505 7.54099083 0.000000
-0.17133400 1.13325500 7.55085278 0.000000
-0.17552200 1.17493403 7.53942013 0.000000
-0.90532702 1.16250801 7.77310085 0.000000
-0.69137198 1.23373604 8.00523186 0.000000
-0.85496199 1.19963205 7.73236799 0.000000
-0.89802802 1.19991004 7.70442104 0.000000
-0.93791199 1.17167103 7.72579193 0.000000
-0.91678101 1.16320705 7.76296520 0.000000
-0.63691401 1.24258995 8.08054924 0.000000
-0.92624599 1.19242895 7.69455814 0.000000
-0.59710503 1.24507296 8.05445004 0.000000
-0.63741100 1.24549794 8.01449680 0.000000
-0.59758401 1.24572897 8.02089214 0.000000
-0.84574699 1.19693100 7.75938082 0.000000
-0.83292103 1.19734001 7.70965099 0.000000
-0.67102802 1.24106705 7.99396420 0.000000
-0.61448902 1.24542499 8.04625511 0.000000
-0.90469998 1.20164096 7.68321419 0.000000
-0.70356798 1.22127998 8.01070690 0.000000
-0.66880399 1.24318099 8.02456284 0.000000
-0.67059702 1.24092102 8.06745529 0.000000
-0.93364900 1.18359196 7.72359514 0.000000
-0.70387203 1.21351802 8.05561733 0.000000
-0.66765201 1.24238801 7.99431705 0.000000
-0.70687401 1.21621799 8.04177189 0.000000
-0.87544799 1.19804299 7.75358820 0.000000
-0.67512101 1.23948002 8.05709457 0.000000
-0.93225300 1.16758299 7.74533510 0.000000
-0.88670599 1.19442201 7.75920677 0.000000
-0.89521700 1.18874598 7.76205921 0.000000
-0.89045900 1.20161700 7.71472883 0.000000
-0.88628203 1.19843495 7.73472691 0.000000
-0.81694603 1.19728506 7.72256613 0.000000
-0.88607198 1.18783903 7.65667200 0.000000
-0.89306903 1.19808495 7.68831778 0.000000
-0.60015601 1.24240005 8.06912422 0.000000
-0.84896702 1.18754494 7.65368414 0.000000
-0.59011400 1.24260604 8.01238918 0.000000
-0.80535501 1.19049501 7.71810722 0.000000
-0.62910700 1.24670899 7.99756098 0.000000
-0.87411302 1.19908905 7.69745398 0.000000
-0.90387797 1.19825494 7.69835901 0.000000
-0.87727398 1.17387605 7.77991819 0.000000
-0.83090299 1.19910300 7.74879599 0.000000
-0.66327798 1.19777906 7.98779488 0.000000
-0.82168102 1.19384301 7.74784899 0.000000
-0.93411303 1.14202094 7.71293116 0.000000
-0.62680799 1.23309004 8.09745407 0.000000
-0.93231100 1.13330495 7.71426678 0.000000
-0.92622501 1.13695502 7.70357323 0.000000
-0.66387802 1.22157896 8.10157299 0.000000
-0.71718597 1.16063201 8.08573246 0.000000
-0.95391500 1.07788706 7.76308918 0.000000
-0.69669598 1.19676697 8.08821869 0.000000
-0.92944801 1.15357196 7.75548410 0.000000
-0.72115600 1.18000305 8.05223656 0.000000
-0.91307002 1.14946103 7.77611589 0.000000
-0.62098098 1.24506903 8.03559399 0.000000
-0.63818300 1.24444699 8.04204845 0.000000
-0.64499497 1.24490702 8.01899815 0.000000
-0.67474198 1.23971498 8.00533676 0.000000
-0.84445202 1.19114101 7.76488304 0.000000
-0.84815198 1.16508603 7.77084923 0.000000
-0.86714900 1.17885399 7.77793407 0.000000
-0.11431900 1.22118700 7.47926378 0.000000
-0.93573499 1.17637801 7.71147823 0.000000
0.30993000 0.31935900 6.91125584 0.000000
0.27021101 0.30581000 7.03925514 0.000000
0.26735401 0.30668500 7.04990578 0.000000
0.31033400 0.29736900 6.90782118 0.000000
0.33130401 0.30991700 6.89337111 0.000000
0.39983001 0.31174499 6.99551487 0.000000
0.38704300 0.32101300 7.02890921 0.000000
0.28725699 0.31942600 6.99566221 0.000000
0.38163400 0.30664200 7.07645321 0.000000
0.28229600 0.31570601 7.01005077 0.000000
0.39871299 0.31355801 7.00126123 0.000000
0.39507800 0.30436000 7.01646614 0.000000
0.40273499 0.32025301 6.96210623 0.000000
0.36650401 0.31397700 6.90230703 0.000000
0.35312900 0.31550899 6.89613485 0.000000
0.36569899 0.29984200 7.14225197 0.000000
0.26692301 0.31396201 7.06094694 0.000000
0.24578799 0.29450300 7.10741806 0.000000
