0.375070 -0.152730 -0.058860 0.648300 0.758700 -0.063310 7.000000
-0.370500 -0.100000 0.055600 -0.987600 0.087560 0.130400 6.000000
0.300740 -0.145750 0.047380 -0.026580 0.999600 -0.006657 7.000000
-0.373250 -0.126340 -0.048610 -0.991300 0.000051 -0.131300 6.000000
0.208180 -0.145750 -0.106510 0.000000 1.000000 0.000000 7.000000
-0.171910 0.136930 0.038050 0.049190 -0.998400 -0.028260 6.000000
-0.015580 -0.022770 0.265760 0.381900 0.086510 0.920200 6.000000
0.231810 -0.152730 -0.145310 0.000000 -1.000000 0.000000 7.000000
0.056270 -0.119490 0.242400 -0.608100 -0.074820 -0.790300 6.000000
0.129560 -0.134390 0.175150 -0.793700 0.000000 -0.608300 6.000000
-0.258520 0.051290 0.192680 0.563500 -0.378500 -0.734300 6.000000
-0.054550 0.128490 0.136560 0.083610 0.973400 0.213500 6.000000
-0.124720 0.079150 -0.233170 -0.109200 0.547000 -0.830000 6.000000
0.317330 -0.145750 -0.184940 0.121400 0.984500 -0.126900 7.000000
0.274540 -0.145750 -0.166050 0.006633 1.000000 0.006633 7.000000
0.157160 -0.065360 -0.118600 0.906700 0.150700 -0.393900 6.000000
0.045190 0.109290 0.147010 0.339300 0.881300 0.329100 6.000000
-0.157110 -0.138460 0.278760 -0.123900 0.026480 0.991900 6.000000
0.246660 -0.152730 -0.066650 0.000000 -1.000000 0.000000 7.000000
-0.213750 -0.102250 -0.253560 0.381500 -0.087850 0.920200 6.000000
0.181180 -0.016980 -0.005440 -0.985800 -0.094770 0.138800 6.000000
0.206600 -0.152730 0.075390 0.000000 -1.000000 0.000000 7.000000
0.202050 -0.152730 0.162010 0.000000 -1.000000 0.000000 7.000000
0.114440 0.041960 -0.146410 -0.738600 -0.358800 0.570800 6.000000
-0.262660 0.096400 0.140140 -0.452200 0.814200 0.364000 6.000000
-0.006540 -0.058550 0.265400 0.380000 -0.008739 0.924900 6.000000
-0.343850 -0.037090 0.118620 0.920500 -0.087190 -0.380800 6.000000
-0.318820 0.079110 0.076990 0.770400 -0.550300 -0.322000 6.000000
-0.128940 -0.009120 -0.269570 -0.129500 0.112200 -0.985200 6.000000
0.321990 -0.145750 -0.028190 0.000000 1.000000 0.000000 7.000000
-0.070310 -0.039310 0.276380 -0.132500 -0.086520 -0.987400 6.000000
-0.257170 0.122270 0.015480 0.282900 -0.958500 -0.035540 6.000000
0.190660 -0.145750 -0.234870 0.000000 1.000000 0.000000 7.000000
-0.320040 0.073270 -0.081310 0.787800 -0.524400 0.323100 6.000000
-0.149010 0.138700 -0.004150 -0.083820 0.996400 -0.012440 6.000000
0.052510 -0.008960 0.233120 -0.590000 -0.204300 -0.781100 6.000000
-0.340740 0.026570 0.087660 0.870700 -0.334300 -0.360700 6.000000
-0.333310 -0.055130 0.144930 -0.839700 0.103200 0.533200 6.000000
0.100600 0.021730 -0.176230 0.728900 0.415800 -0.543900 6.000000
-0.340690 -0.033700 -0.122790 -0.920700 0.086910 -0.380600 6.000000
0.285240 -0.152730 -0.074050 0.000000 -1.000000 0.000000 7.000000
0.316110 -0.145750 -0.012440 -0.019850 0.999000 0.039720 7.000000
0.159810 -0.146230 -0.125790 -0.917900 -0.143700 0.369800 6.000000
-0.080920 -0.130380 -0.282620 0.127700 0.036550 -0.991100 6.000000
0.156130 -0.152730 0.159590 0.000000 -1.000000 0.000000 7.000000
0.194950 -0.145750 0.016200 -0.940900 -0.300900 -0.155400 7.000000
0.281850 -0.152730 0.030390 0.000000 -1.000000 0.000000 7.000000
-0.319370 0.033660 -0.129510 0.852600 -0.326100 0.408300 6.000000
0.346670 -0.145750 -0.125080 0.000000 1.000000 0.000000 7.000000
-0.218830 -0.049730 0.249190 0.380000 -0.086960 -0.920900 6.000000
0.044780 0.022930 0.225210 -0.573800 -0.334600 -0.747500 6.000000
-0.045550 -0.069660 -0.273100 -0.129100 -0.087780 0.987700 6.000000
-0.296260 0.107720 -0.015260 -0.543200 0.836500 -0.072140 6.000000
-0.290210 0.009850 0.184070 -0.747700 0.334200 0.573900 6.000000
-0.197290 0.134610 -0.047690 0.160400 -0.985400 0.056380 6.000000
0.352760 -0.148830 -0.140550 0.896600 0.170200 -0.408900 7.000000
-0.067730 0.138800 0.048130 -0.032070 -0.998400 -0.046770 6.000000
0.137000 -0.145750 -0.222970 0.000000 1.000000 0.000000 7.000000
-0.272420 -0.011300 0.209080 0.608100 -0.200500 -0.768100 6.000000
-0.340310 0.057380 0.041870 -0.917700 0.378300 0.121200 6.000000
0.277290 -0.152730 0.074540 0.000000 -1.000000 0.000000 7.000000
0.192220 -0.152730 -0.185330 0.000000 -1.000000 0.000000 7.000000
-0.181720 0.121640 -0.139890 -0.157900 0.944900 -0.286700 6.000000
-0.109770 -0.050340 0.278430 0.130100 -0.087100 -0.987700 6.000000
0.014670 -0.051070 0.255910 -0.381400 -0.087510 -0.920300 6.000000
-0.225880 0.128020 -0.051840 -0.251700 0.967400 -0.026650 6.000000
0.058370 -0.076630 -0.233360 -0.606700 -0.086680 0.790200 6.000000
0.207220 -0.152730 -0.235840 0.000000 -1.000000 0.000000 7.000000
0.045190 0.109290 0.147010 0.339300 0.881300 0.329100 6.000000
0.037880 -0.055600 -0.244020 -0.381200 -0.086960 0.920400 6.000000
-0.280650 0.109860 0.071140 -0.353200 0.925200 0.138900 6.000000
-0.109390 0.016810 -0.263250 0.123300 -0.333700 0.934600 6.000000
0.000810 0.052420 0.234150 -0.356800 -0.353700 -0.864600 6.000000
-0.003120 0.107190 0.183730 -0.202100 -0.849500 -0.487400 6.000000
0.287010 -0.145750 0.060830 0.033070 0.999400 -0.006606 7.000000
0.070630 -0.152730 -0.260600 0.000017 -1.000000 -0.003396 7.000000
-0.138470 0.009710 0.264670 -0.123000 0.334700 0.934200 6.000000
0.228680 -0.145750 -0.054510 0.000000 -1.000000 0.000000 7.000000
-0.115780 0.127220 0.145220 0.030620 -0.973600 -0.226100 6.000000
-0.291320 -0.033480 -0.193850 0.759500 -0.092490 0.643900 6.000000
0.169830 -0.045730 0.086250 -0.920500 -0.086590 -0.381000 6.000000
0.190660 -0.145750 -0.234870 0.000000 1.000000 0.000000 7.000000
0.149500 -0.145750 -0.238450 0.000000 1.000000 0.000000 7.000000
0.010800 0.131060 0.076780 0.175100 0.972900 0.151000 6.000000
0.209510 -0.145750 0.086920 -0.039730 0.999200 0.000006 7.000000
-0.103320 0.139440 0.042750 -0.023520 0.996400 0.081930 6.000000
0.353990 -0.145750 0.097740 0.061540 0.998000 -0.017260 7.000000
-0.271160 0.100960 -0.116040 0.456300 -0.819100 0.347600 6.000000
0.114350 0.103110 0.018740 0.581800 0.809700 0.076570 6.000000
-0.066470 -0.012740 0.273530 0.129400 0.108500 0.985600 6.000000
0.094200 -0.146230 -0.211190 -0.608800 -0.014700 0.793200 7.000000
0.248980 -0.152730 0.152550 0.000000 -1.000000 0.000000 7.000000
0.072240 -0.082480 0.226070 -0.606400 -0.087170 -0.790400 6.000000
-0.136820 0.136160 0.091340 -0.042360 0.993900 0.101500 6.000000
-0.173520 -0.108430 0.273510 0.380200 -0.086610 -0.920800 6.000000
0.078390 0.019930 0.200770 -0.574100 -0.334200 -0.747500 6.000000
-0.099630 -0.033030 0.278240 -0.049920 0.086560 0.995000 6.000000
-0.276080 -0.012100 -0.203660 0.606600 -0.090950 0.789800 6.000000
-0.037560 0.095640 0.215040 -0.141900 -0.811300 -0.567100 6.000000
0.138250 0.080180 -0.040440 0.793100 0.595600 -0.127600 6.000000
-0.253450 0.063030 0.190500 0.529100 -0.468300 -0.707600 6.000000
-0.294450 0.095540 0.090980 0.543000 -0.809400 -0.223400 6.000000
-0.367680 -0.089190 0.069740 -0.980300 0.087330 0.177000 6.000000
-0.175650 0.126540 0.125800 0.139500 -0.972600 -0.185900 6.000000
-0.049120 0.116960 0.176150 -0.044160 -0.942300 -0.331800 6.000000
-0.018830 0.112670 -0.174390 0.165700 0.927900 -0.334000 6.000000
0.073860 -0.103600 -0.224450 -0.603200 -0.075740 0.794000 6.000000
0.137150 -0.145750 0.177040 0.366000 0.872600 0.323600 7.000000
0.230650 -0.145750 -0.222720 0.000000 1.000000 0.000000 7.000000
-0.156450 0.078470 -0.229320 -0.280900 0.540900 -0.792800 6.000000
-0.165040 -0.145920 0.277720 0.219400 0.000016 -0.975600 6.000000
-0.273360 -0.133970 -0.218160 0.627900 -0.046170 0.776900 6.000000
-0.313780 -0.127620 -0.177700 0.790700 -0.033170 0.611300 6.000000
0.216250 -0.145750 0.219100 0.072620 0.997300 0.013300 7.000000
-0.202120 -0.010910 0.252440 0.393800 -0.119400 -0.911400 6.000000
0.183820 -0.048010 -0.006110 0.987900 0.086460 -0.128500 6.000000
-0.275740 0.116160 -0.009000 -0.333600 0.941700 -0.043040 6.000000
-0.286150 0.009530 0.189560 -0.717000 0.339700 0.608600 6.000000
0.274540 -0.145750 -0.166050 0.006633 1.000000 0.006633 7.000000
-0.247510 0.123390 -0.046940 -0.305300 0.945000 -0.117300 6.000000
-0.006460 -0.042300 -0.261130 0.381400 0.087260 -0.920300 6.000000
0.070460 0.085930 0.167590 -0.532500 -0.548700 -0.644500 6.000000
-0.147670 0.112160 0.187630 -0.095770 0.940400 0.326300 6.000000
0.083210 0.112610 0.073190 0.376500 0.915100 0.144100 6.000000
0.067390 -0.145950 -0.231750 -0.601900 -0.032940 0.797900 7.000000
0.183510 -0.057060 -0.014610 0.987700 0.086930 -0.129900 6.000000
-0.263620 0.118230 -0.048130 0.299800 -0.948500 0.102100 6.000000
0.169510 -0.152730 0.241100 0.000000 -1.000000 0.000000 7.000000
-0.340690 -0.033700 -0.122790 -0.920700 0.086910 -0.380600 6.000000
-0.316970 0.093770 -0.005450 0.582000 -0.812100 0.042910 6.000000
0.110160 0.089440 -0.100700 -0.541500 -0.806500 0.237400 6.000000
0.185180 -0.104020 0.036030 0.987700 0.087030 0.130000 6.000000
-0.346860 -0.059810 0.116530 0.932500 -0.025750 -0.360200 6.000000
-0.156650 0.113340 0.180340 0.145900 -0.925400 -0.349900 6.000000
-0.349450 -0.005140 -0.093320 -0.872000 0.328700 -0.362800 6.000000
0.319840 -0.145750 -0.020550 0.006637 1.000000 0.006636 7.000000
-0.354920 -0.033550 0.091100 -0.920600 0.087600 0.380600 6.000000
0.270010 -0.152730 0.108470 0.000000 -1.000000 0.000000 7.000000
-0.367520 -0.084210 -0.064980 0.986900 -0.090820 0.133300 6.000000
0.315760 -0.145750 0.178930 -0.039880 0.999200 0.000000 7.000000
-0.004220 0.136570 0.025330 -0.054900 -0.998400 -0.014300 6.000000
-0.242520 0.117150 0.101410 -0.258100 0.945300 0.199600 6.000000
-0.157000 -0.071530 0.274080 -0.129900 0.086940 0.987700 6.000000
0.364600 -0.145920 -0.110650 0.705400 -0.685400 -0.180500 7.000000
0.253130 -0.152730 0.062890 0.000000 -1.000000 0.000000 7.000000
0.121210 0.076810 -0.100810 0.737600 0.585500 -0.336300 6.000000
-0.313600 -0.070890 0.172890 0.789300 -0.050400 -0.612000 6.000000
0.204650 -0.152730 -0.182890 0.000000 -1.000000 0.000000 7.000000
0.270380 -0.145750 0.044090 0.000000 1.000000 0.000000 7.000000
-0.204580 0.115650 0.147050 0.203500 -0.942600 -0.264800 6.000000
0.179140 -0.019820 0.025540 -0.987700 -0.087040 -0.130000 6.000000
0.255570 -0.152730 0.169080 0.000000 -1.000000 0.000000 7.000000
-0.092580 0.118020 -0.176100 -0.014020 -0.943700 0.330500 6.000000
0.201080 -0.145750 -0.167760 0.000000 1.000000 0.000000 7.000000
0.146470 -0.099800 -0.146810 -0.807200 -0.084120 0.584300 6.000000
0.027500 0.114340 0.143090 -0.204800 -0.941900 -0.266300 6.000000
0.286840 -0.145750 -0.159710 0.000000 1.000000 0.000000 7.000000
0.258040 -0.152730 0.056660 0.000000 -1.000000 0.000000 7.000000
-0.067730 0.138800 0.048130 -0.032070 -0.998400 -0.046770 6.000000
-0.236450 -0.001320 -0.230730 0.601700 -0.261100 0.754800 6.000000
0.035780 0.078390 -0.197710 -0.455700 -0.613100 0.645300 6.000000
-0.160850 0.137250 0.046320 0.046340 -0.998400 -0.033140 6.000000
-0.225790 -0.124790 -0.250710 0.383000 -0.018000 0.923600 6.000000
0.076730 0.054350 0.186140 0.532500 0.465800 0.706700 6.000000
0.065780 -0.078580 -0.227890 0.606800 0.086550 -0.790100 6.000000
-0.073140 0.137090 -0.079810 0.016950 0.998400 -0.054190 6.000000
0.030870 0.069250 -0.209020 0.528100 0.513400 -0.676400 6.000000
-0.026100 0.061820 0.241130 0.365400 0.328600 0.870900 6.000000
-0.034480 -0.146420 -0.276500 0.133800 -0.019470 -0.990800 6.000000
0.161640 0.031680 -0.040650 0.934400 0.334300 -0.123100 6.000000
0.164120 -0.094300 0.111100 0.920700 0.087690 0.380300 6.000000
-0.026000 0.108450 -0.188590 0.186200 0.852900 -0.487700 6.000000
0.121340 -0.065440 0.177330 0.802000 -0.008598 0.597300 6.000000
0.205760 -0.145750 -0.175430 0.000000 -1.000000 0.000000 7.000000
-0.361360 0.014850 0.001960 -0.943700 0.324300 0.065550 6.000000
-0.257930 0.120720 0.045160 -0.293000 0.955300 0.038090 6.000000
0.080350 0.078320 -0.160670 0.646200 0.543600 -0.535600 6.000000
0.062230 0.075280 0.182680 -0.509500 -0.547400 -0.663900 6.000000
-0.112190 -0.149840 0.284680 -0.172600 -0.099990 0.979900 6.000000
0.040340 -0.145960 -0.249550 -0.382500 0.000027 0.923900 6.000000
-0.116190 -0.010860 -0.271410 -0.131800 0.114300 -0.984700 6.000000
-0.171220 -0.147500 -0.273310 0.378500 -0.039960 0.924700 6.000000
0.245370 -0.152730 -0.113050 0.000000 -1.000000 0.000000 7.000000
-0.016310 0.019430 -0.251520 -0.360700 -0.334200 0.870700 6.000000
0.278910 -0.145750 0.095430 0.000000 1.000000 0.000000 7.000000
0.270380 -0.145750 0.044090 0.000000 1.000000 0.000000 7.000000
-0.024830 0.124620 0.142030 0.088690 0.971200 0.221200 6.000000
0.201420 -0.145750 -0.188120 0.000000 1.000000 0.000000 7.000000
-0.304460 0.097570 -0.056800 -0.543800 0.808900 -0.223400 6.000000
0.181180 -0.016980 -0.005440 -0.985800 -0.094770 0.138800 6.000000
-0.059370 0.104050 -0.203530 -0.076660 -0.809300 0.582400 6.000000
-0.244930 0.021620 0.216670 0.573000 -0.335100 -0.747900 6.000000
-0.265010 -0.110340 0.225670 0.606400 -0.087240 -0.790300 6.000000
0.190660 -0.145750 -0.234870 0.000000 1.000000 0.000000 7.000000
0.002950 0.079600 0.216820 -0.318700 -0.550700 -0.771400 6.000000
0.072240 -0.082480 0.226070 -0.606400 -0.087170 -0.790400 6.000000
0.019030 0.121450 -0.121000 0.204400 0.951700 -0.229200 6.000000
-0.361990 -0.044120 -0.073730 -0.936600 0.089660 -0.338700 6.000000
-0.071010 0.112640 -0.188520 -0.047850 -0.938900 0.340800 6.000000
-0.132760 -0.111090 -0.280290 -0.149500 0.095780 -0.984100 6.000000
0.002910 -0.054220 -0.258380 0.381000 0.087140 -0.920500 6.000000
-0.085480 0.136650 0.091930 0.045850 0.997300 0.056670 6.000000
0.313810 -0.152730 -0.173560 0.000000 -1.000000 0.000000 7.000000
0.285240 -0.152730 -0.074050 0.000000 -1.000000 0.000000 7.000000
0.180920 -0.022710 0.013940 0.987500 0.087640 0.130800 6.000000
0.209010 -0.152730 -0.012980 0.000000 -1.000000 0.000000 7.000000
-0.208820 0.110040 -0.160870 -0.300800 0.912400 -0.277700 6.000000
0.087990 -0.145750 -0.237730 0.000000 -1.000000 0.000000 7.000000
-0.307470 -0.042860 0.176850 -0.790400 0.087080 0.606400 6.000000
-0.369400 -0.013870 -0.003570 -0.994100 0.087620 0.064520 6.000000
0.159550 0.033270 -0.052190 0.935700 0.274100 -0.222000 6.000000
0.184950 -0.051530 0.002650 0.986800 0.103600 0.124300 6.000000
-0.177750 0.136930 -0.021390 -0.031240 0.994800 -0.096670 6.000000
0.182080 -0.048950 -0.019970 0.987700 0.086930 -0.129900 6.000000
-0.039990 0.105320 -0.199110 -0.138400 -0.821500 0.553200 6.000000
-0.123890 -0.148790 -0.280440 -0.130400 -0.023680 -0.991200 6.000000
0.226890 -0.145750 0.003350 0.012140 0.999900 -0.004321 7.000000
-0.289940 -0.044040 -0.196540 0.731300 -0.111400 0.672900 6.000000
0.163470 0.032870 -0.023550 0.935000 0.332900 -0.122600 6.000000
0.077840 0.116680 -0.053770 -0.309600 -0.942200 0.127800 6.000000
0.315830 -0.152730 -0.129830 0.000000 -1.000000 0.000000 7.000000
0.240270 -0.152730 0.192790 -0.000006 1.000000 -0.000003 7.000000
-0.239150 0.113260 -0.120950 0.278400 -0.936700 0.212500 6.000000
-0.039000 0.004060 0.265270 -0.122400 -0.334700 -0.934400 6.000000
-0.022450 -0.067270 -0.269840 -0.159100 -0.085800 0.983500 6.000000
0.138120 -0.152730 0.207220 0.000000 -1.000000 0.000000 7.000000
0.080820 0.092970 0.139560 -0.466200 -0.808900 -0.358100 6.000000
0.195380 -0.145750 -0.155290 0.000000 1.000000 0.000000 7.000000
-0.134860 -0.039960 -0.271510 -0.127200 0.085280 -0.988200 6.000000
0.188040 -0.107860 -0.014170 -0.987200 -0.088410 0.132500 6.000000
0.010690 0.127550 0.101390 -0.179800 -0.973500 -0.141400 6.000000
-0.301060 -0.022730 0.182320 0.789900 -0.086430 -0.607100 6.000000
0.126810 -0.026550 -0.161920 0.790400 0.086800 -0.606400 6.000000
0.166380 -0.145750 0.231160 0.000000 1.000000 0.000000 7.000000
0.034420 0.129480 -0.043330 0.233900 0.968900 -0.080880 6.000000
-0.277300 -0.017870 0.206060 0.606500 -0.086870 -0.790300 6.000000
-0.323430 0.010820 0.140220 -0.746300 0.339600 0.572400 6.000000
0.202830 -0.145750 -0.047690 0.033110 0.999100 -0.026450 7.000000
-0.067730 0.138800 0.048130 -0.032070 -0.998400 -0.046770 6.000000
0.027500 0.114340 0.143090 -0.204800 -0.941900 -0.266300 6.000000
-0.356370 0.004860 -0.064290 -0.926700 0.329900 -0.179700 6.000000
-0.324540 0.013300 -0.134640 -0.758600 0.337000 -0.557600 6.000000
-0.227880 -0.086060 0.248880 -0.381000 0.087270 0.920400 6.000000
0.166640 0.009000 -0.064320 -0.929700 -0.331800 0.160000 6.000000
0.037880 -0.055600 -0.244020 -0.381200 -0.086960 0.920400 6.000000
0.230650 -0.145750 -0.222720 0.000000 1.000000 0.000000 7.000000
-0.023430 0.129510 -0.115480 -0.120600 -0.972800 0.197700 6.000000
-0.093370 0.072030 -0.241800 -0.045820 0.549100 -0.834500 6.000000
-0.108730 0.143670 0.012180 -0.588200 0.680000 0.437700 6.000000
0.135220 -0.145750 -0.184780 0.214400 0.954900 -0.205500 7.000000
-0.202850 -0.013270 -0.249660 -0.382600 0.110700 -0.917300 6.000000
0.186440 -0.150520 -0.037720 0.346800 0.937100 -0.041200 7.000000
0.163140 -0.034380 -0.097100 -0.920100 -0.086690 0.381900 6.000000
-0.354690 -0.149270 0.112490 -0.919600 -0.115100 0.375600 6.000000
-0.016310 0.019430 -0.251520 -0.360700 -0.334200 0.870700 6.000000
0.127710 -0.070320 0.169720 -0.790600 -0.087130 -0.606100 6.000000
0.190070 -0.145750 -0.060870 0.097240 0.995300 -0.000905 7.000000
0.147180 -0.152730 -0.214780 0.000000 -1.000000 0.000000 7.000000
0.095160 -0.019220 0.201520 0.606400 0.087040 0.790400 6.000000
-0.153820 0.054730 0.246110 0.231400 -0.376200 -0.897200 6.000000
0.209010 -0.152730 -0.012980 0.000000 -1.000000 0.000000 7.000000
0.080350 0.078320 -0.160670 0.646200 0.543600 -0.535600 6.000000
-0.346140 0.040220 -0.045890 -0.934400 0.334800 -0.121700 6.000000
0.359350 -0.152730 0.019840 0.000000 -1.000000 0.000000 7.000000
0.129860 0.010610 0.147280 0.731000 0.370500 0.573000 6.000000
-0.014900 0.136340 -0.053400 -0.045550 -0.998400 0.034610 6.000000
-0.340560 -0.128700 -0.142790 -0.870800 0.008979 -0.491500 6.000000
-0.340040 -0.003920 0.117610 -0.870900 0.334200 0.360400 6.000000
-0.367840 -0.057590 0.047440 -0.987700 0.087070 0.129800 6.000000
0.352750 -0.145750 -0.039220 0.000000 1.000000 0.000000 7.000000
0.045170 0.127020 -0.044660 -0.208800 -0.974100 0.086850 6.000000
-0.247060 0.112420 0.117190 -0.275800 0.939400 0.203700 6.000000
-0.174590 0.032110 0.248260 -0.360600 0.335600 0.870300 6.000000
-0.048990 0.001050 0.267660 0.123200 0.333300 0.934700 6.000000
-0.346510 -0.073960 -0.117930 -0.919900 0.086630 -0.382500 6.000000
-0.049890 0.132470 -0.113640 -0.087400 -0.973900 0.209600 6.000000
-0.188940 0.125170 0.122930 -0.141600 0.972600 0.184500 6.000000
-0.039990 0.105320 -0.199110 -0.138400 -0.821500 0.553200 6.000000
0.033050 0.120370 0.113500 0.253700 0.947600 0.194300 6.000000
0.235110 -0.145750 -0.109060 0.000000 1.000000 0.000000 7.000000
0.027150 0.132470 -0.021060 0.214300 0.976600 -0.017440 6.000000
-0.055550 0.139290 0.024580 -0.051130 -0.998400 -0.024580 6.000000
-0.255850 -0.018250 0.222560 -0.670100 0.109800 0.734100 6.000000
0.250080 -0.145750 0.026300 0.000000 0.999800 -0.019880 7.000000
-0.141720 0.132600 0.114340 0.094410 -0.972400 -0.213500 6.000000
-0.045510 0.046220 0.251040 -0.122800 -0.361100 -0.924400 6.000000
-0.339180 -0.085350 -0.138210 0.855800 -0.100700 0.507400 6.000000
-0.061570 -0.100610 0.280630 0.128400 0.086720 0.987900 6.000000
0.190040 -0.122820 -0.008940 -0.989700 -0.065870 0.126800 6.000000
-0.167530 0.065070 -0.234210 -0.340800 0.489400 -0.802700 6.000000
-0.225790 -0.124790 -0.250710 0.383000 -0.018000 0.923600 6.000000
0.052120 0.004130 -0.225290 -0.575400 -0.332500 0.747200 6.000000
0.369290 -0.145750 -0.001570 0.003812 -1.000000 0.000000 7.000000
0.220810 -0.152730 -0.025050 0.000000 -1.000000 0.000000 7.000000
-0.189540 0.097600 -0.193520 0.224600 -0.809200 0.542900 6.000000
-0.163100 0.055680 0.243450 -0.348500 0.381100 0.856300 6.000000
-0.063160 0.137730 0.066400 -0.020610 -0.998400 -0.053170 6.000000
0.028120 0.091640 -0.188150 0.316400 0.848400 -0.424500 6.000000
0.225500 -0.152730 -0.223730 0.000000 1.000000 0.000000 7.000000
-0.206120 -0.061500 0.255570 0.381400 -0.087260 -0.920300 6.000000
-0.235720 0.035580 -0.214790 -0.572600 0.337100 -0.747300 6.000000
-0.208610 0.103410 0.176370 -0.385300 0.743800 0.546200 6.000000
0.122600 -0.056980 -0.171770 0.764400 0.072840 -0.640700 6.000000
0.315760 -0.145750 0.178930 -0.039880 0.999200 0.000000 7.000000
0.150930 -0.101160 -0.141200 0.751600 0.103700 -0.651400 6.000000
0.163560 -0.152730 -0.218790 0.000000 1.000000 0.000000 7.000000
0.339820 -0.145750 -0.025530 0.000000 1.000000 0.000000 7.000000
0.033340 0.000180 0.241050 0.362500 0.331100 0.871200 6.000000
0.337390 -0.152730 -0.040680 0.000000 -1.000000 0.000000 7.000000
-0.070970 0.123460 -0.156960 -0.036740 -0.958000 0.284300 6.000000
-0.076340 0.119090 -0.170770 0.037580 0.950300 -0.309100 6.000000
-0.316830 -0.118210 -0.172770 0.793500 -0.075850 0.603800 6.000000
-0.108990 -0.092320 -0.279530 -0.249500 0.401000 -0.881400 6.000000
0.049170 0.001990 0.231200 0.535100 0.389000 0.749900 6.000000
0.135100 -0.078720 -0.158600 -0.790300 -0.086900 0.606600 6.000000
-0.241210 -0.003460 0.230740 -0.621000 0.363100 0.694700 6.000000
-0.047050 -0.144220 0.280860 -0.131200 0.000003 -0.991400 6.000000
0.105660 -0.145750 0.262430 -0.022720 0.992500 0.120300 7.000000
0.221420 -0.145750 -0.126520 0.079600 0.996800 -0.000000 7.000000
-0.355260 -0.143440 -0.108400 -0.923100 -0.000741 -0.384500 6.000000
-0.230860 0.014190 -0.228090 -0.525300 0.345600 -0.777600 6.000000
0.207220 -0.152730 -0.235840 0.000000 -1.000000 0.000000 7.000000
0.177660 -0.059220 -0.060490 0.985100 0.119600 -0.123400 6.000000
-0.196640 0.115070 0.155190 -0.212000 0.929300 0.302400 6.000000
-0.332000 -0.016100 -0.138350 0.842200 -0.093690 0.530900 6.000000
0.211530 -0.145750 0.145030 0.066650 0.997800 0.006458 7.000000
0.348320 -0.152730 -0.010680 0.000000 -1.000000 0.000000 7.000000
0.298100 -0.152730 0.087450 0.000000 -1.000000 0.000000 7.000000
0.157160 -0.065360 -0.118600 0.906700 0.150700 -0.393900 6.000000
-0.080200 0.140330 0.024360 -0.313000 -0.890800 -0.329400 6.000000
0.148560 0.069540 -0.015430 -0.829900 -0.547100 0.108800 6.000000
0.121390 0.069410 0.115720 0.789100 0.525100 0.318800 6.000000
-0.173300 0.137310 0.007990 0.056710 -0.998400 -0.003322 6.000000
0.178530 -0.018220 -0.026440 -0.985100 -0.117700 0.125400 6.000000
0.250450 -0.145750 0.117500 0.000000 1.000000 0.000000 7.000000
0.139120 -0.145750 0.187330 0.074790 0.996700 0.031910 7.000000
-0.367840 -0.057590 0.047440 -0.987700 0.087070 0.129800 6.000000
-0.214890 -0.072120 -0.250240 -0.381600 0.086080 -0.920300 6.000000
-0.166960 0.105020 -0.191810 0.212900 -0.826300 0.521400 6.000000
-0.191530 -0.143990 -0.264900 0.379400 -0.038370 0.924500 6.000000
-0.313350 -0.045850 0.169620 -0.790600 0.087390 0.606000 6.000000
-0.304790 0.081840 -0.103480 0.711800 -0.628400 0.313800 6.000000
0.033340 0.000180 0.241050 0.362500 0.331100 0.871200 6.000000
0.228160 -0.152730 -0.062040 0.000000 -1.000000 0.000000 7.000000
-0.098990 0.002890 0.272310 0.051650 0.320200 0.945900 6.000000
0.118400 -0.145750 0.192530 -0.794300 -0.032640 -0.606700 7.000000
-0.012970 0.112420 -0.172720 0.165700 0.927900 -0.334000 6.000000
-0.357130 -0.022030 0.083120 -0.920500 0.087270 0.380800 6.000000
0.376720 -0.152730 0.011530 0.164100 0.986400 -0.012670 7.000000
0.363670 -0.152730 -0.024290 0.000000 -1.000000 0.000000 7.000000
0.366000 -0.152730 0.094410 0.689500 -0.714600 0.117900 7.000000
0.301730 -0.152730 -0.120610 0.086060 0.996200 -0.013110 7.000000
-0.373250 -0.126340 -0.048610 -0.991300 0.000051 -0.131300 6.000000
0.240360 -0.152730 -0.086910 0.000000 -1.000000 0.000000 7.000000
-0.007070 0.124930 -0.127450 -0.142300 -0.971200 0.191000 6.000000
0.188630 -0.152730 0.196810 0.000000 -1.000000 0.000000 7.000000
0.158690 0.038710 -0.043990 0.934000 0.335500 -0.123000 6.000000
-0.171510 0.105210 0.192340 -0.221000 0.840000 0.495600 6.000000
-0.271130 0.117180 0.024800 0.333100 -0.941800 -0.044630 6.000000
0.002950 0.079600 0.216820 -0.318700 -0.550700 -0.771400 6.000000
-0.320040 0.073270 -0.081310 0.787800 -0.524400 0.323100 6.000000
-0.063080 0.028320 0.259760 -0.122800 -0.334000 -0.934500 6.000000
-0.251850 -0.118340 0.236650 -0.634800 0.051940 0.770900 6.000000
-0.138470 0.071100 0.239380 -0.110700 0.547100 0.829700 6.000000
0.186480 -0.152730 -0.192340 0.000000 -1.000000 0.000000 7.000000
0.163190 -0.145750 -0.208830 0.000000 1.000000 0.000000 7.000000
0.156580 0.034210 -0.068000 -0.879900 -0.338800 0.333100 6.000000
0.233970 -0.152730 0.196780 0.000000 -1.000000 0.000000 7.000000
-0.174600 0.113020 0.173890 -0.108700 0.955700 0.273500 6.000000
0.076510 -0.058980 -0.217500 0.606000 0.087450 -0.790600 6.000000
0.331460 -0.152730 0.159220 -0.008793 0.999600 -0.028480 7.000000
0.163560 -0.152730 -0.218790 0.000000 1.000000 0.000000 7.000000
0.258040 -0.152730 0.056660 0.000000 -1.000000 0.000000 7.000000
-0.228030 0.012830 0.233530 0.475500 -0.366900 -0.799500 6.000000
0.060350 -0.003050 -0.222180 -0.583200 -0.272800 0.765100 6.000000
-0.273340 0.103800 -0.106770 -0.435500 0.824400 -0.361600 6.000000
-0.147970 -0.137610 -0.277270 0.130100 0.000062 0.991500 6.000000
-0.204940 0.092670 0.197190 -0.218800 0.854900 0.470300 6.000000
0.113390 0.046310 0.147940 -0.740900 -0.357800 -0.568400 6.000000
0.094380 0.102070 0.096010 -0.542000 -0.809600 -0.225300 6.000000
-0.316330 -0.002100 0.157000 -0.758000 0.271600 0.593000 6.000000
-0.207880 0.098880 -0.182080 0.349200 -0.809600 0.471800 6.000000
-0.168760 0.097910 -0.201660 -0.225100 0.809300 -0.542500 6.000000
0.047500 0.127700 -0.021870 -0.224900 -0.973900 0.030050 6.000000
0.171080 0.020300 0.002580 -0.936600 -0.333400 -0.107800 6.000000
0.079610 0.118050 -0.027680 -0.320600 -0.946200 0.042600 6.000000
-0.204990 -0.028160 -0.250180 -0.382300 0.088600 -0.919800 6.000000
0.326020 -0.152730 -0.169760 0.121400 0.984500 -0.126900 7.000000
-0.314430 -0.038850 0.167210 -0.790700 0.087020 0.606000 6.000000
-0.161160 -0.134010 -0.275530 0.134400 -0.000009 0.990900 6.000000
0.014030 -0.041600 0.255270 -0.381400 -0.087510 -0.920300 6.000000
0.169380 -0.145750 -0.106910 -0.923400 -0.014040 0.383600 6.000000
-0.055930 0.139360 -0.020250 -0.048250 -0.998400 0.030190 6.000000
-0.197000 -0.049740 -0.255540 -0.382200 0.088050 -0.919900 6.000000
0.332930 -0.145750 -0.132750 0.000000 1.000000 0.000000 7.000000
0.170450 -0.145750 0.105640 -0.055960 -0.998200 -0.023360 7.000000
0.032160 -0.033910 0.247040 -0.381200 -0.087130 -0.920400 6.000000
0.229500 -0.145750 0.070900 0.000000 1.000000 0.000000 7.000000
0.158040 -0.033030 -0.109100 -0.920500 -0.086950 0.381000 6.000000
-0.373090 -0.115790 -0.043750 0.987500 -0.086050 0.131800 6.000000
-0.234690 0.116650 0.113910 0.260100 -0.944600 -0.200300 6.000000
-0.030880 0.138260 0.001590 0.038320 0.999000 -0.023420 6.000000
0.223240 -0.152730 -0.158960 0.000000 -1.000000 0.000000 7.000000
0.223770 -0.152730 0.137670 0.000000 -1.000000 0.000000 7.000000
-0.156210 0.138270 -0.006750 0.057250 -0.998300 0.007924 6.000000
0.206350 -0.145750 0.125070 0.000000 -1.000000 0.000000 7.000000
-0.132820 0.122840 -0.156770 -0.063550 0.960000 -0.272900 6.000000
-0.374840 -0.072000 0.003890 -0.987700 0.087080 0.130000 6.000000
-0.313750 -0.018370 -0.162460 0.790200 -0.089480 0.606300 6.000000
0.087590 0.040140 0.184670 0.686200 0.359300 0.632500 6.000000
0.050870 -0.032930 -0.234310 -0.606800 -0.086760 0.790100 6.000000
-0.012220 -0.025790 -0.261960 0.381400 0.087060 -0.920300 6.000000
0.129560 -0.134390 0.175150 -0.793700 0.000000 -0.608300 6.000000
-0.364700 -0.059670 0.072660 -0.945900 0.092400 0.311100 6.000000
-0.045890 0.090770 0.222910 -0.089180 -0.808300 -0.582000 6.000000
-0.171820 0.114780 -0.166990 -0.104200 0.961300 -0.254900 6.000000
-0.078830 0.074810 0.240750 -0.109200 -0.547300 -0.829800 6.000000
-0.289180 -0.147660 0.208720 0.610100 -0.004405 -0.792300 6.000000
-0.351380 -0.068730 0.107670 0.926500 -0.071410 -0.369400 6.000000
-0.244880 0.124900 -0.040560 0.230200 -0.969200 0.087270 6.000000
-0.083630 0.041590 0.257720 -0.122800 -0.335200 -0.934100 6.000000
-0.063080 0.028320 0.259760 -0.122800 -0.334000 -0.934500 6.000000
-0.347150 -0.113450 -0.125390 -0.920300 0.087160 -0.381300 6.000000
0.243180 -0.145750 -0.138950 -0.006681 0.999900 0.013380 7.000000
0.119450 0.045570 0.140470 0.734700 0.380000 0.562000 6.000000
-0.290260 -0.119770 -0.204630 -0.606300 0.086920 -0.790500 6.000000
-0.339180 -0.085350 -0.138210 0.855800 -0.100700 0.507400 6.000000
-0.041430 0.012210 0.262670 -0.122400 -0.334700 -0.934400 6.000000
-0.326840 -0.028010 0.149480 -0.790600 0.087130 0.606100 6.000000
0.021130 0.023260 0.237250 0.363500 0.431800 0.825400 6.000000
-0.156450 0.078470 -0.229320 -0.280900 0.540900 -0.792800 6.000000
-0.155090 0.137030 0.060130 -0.039850 0.998400 0.040350 6.000000
-0.038440 0.110510 0.191750 -0.139600 -0.915500 -0.377200 6.000000
0.338730 -0.145750 -0.162060 0.837600 -0.086230 -0.539500 7.000000
0.163560 -0.152730 -0.218790 0.000000 1.000000 0.000000 7.000000
0.012610 0.070600 -0.216490 0.320100 0.547400 -0.773200 6.000000
-0.228690 0.122590 0.093020 -0.249000 0.951500 0.180800 6.000000
0.113320 -0.152260 -0.193610 -0.484000 -0.799300 0.356200 7.000000
0.079530 -0.108370 -0.220630 0.606600 0.086960 -0.790300 6.000000
-0.172620 0.132180 0.097930 -0.132600 0.969600 0.205600 6.000000
0.166990 -0.023150 0.087940 -0.920300 -0.086160 -0.381500 6.000000
0.366000 -0.152730 0.094410 0.689500 -0.714600 0.117900 7.000000
-0.121750 -0.055680 0.277320 -0.130100 0.087040 0.987700 6.000000
-0.022450 -0.067270 -0.269840 -0.159100 -0.085800 0.983500 6.000000
0.094200 -0.146230 -0.211190 -0.608800 -0.014700 0.793200 7.000000
-0.353080 -0.137190 -0.113680 -0.923900 0.000000 -0.382700 6.000000
0.033050 0.120370 0.113500 0.253700 0.947600 0.194300 6.000000
0.147870 0.070730 0.017340 -0.829800 -0.547200 -0.109300 6.000000
0.157230 -0.045000 -0.113800 0.908900 0.067830 -0.411400 6.000000
-0.374830 -0.137820 -0.036600 -0.991900 0.000030 -0.127100 6.000000
0.099140 0.054460 -0.158390 -0.733900 -0.379800 0.563200 6.000000
-0.378330 -0.141360 -0.010070 -0.991500 -0.004349 -0.130100 6.000000
-0.155230 -0.022640 -0.267300 -0.127400 0.085340 -0.988200 6.000000
-0.081690 0.139400 -0.039930 0.009666 0.998100 -0.060900 6.000000
-0.031240 0.136830 0.063510 -0.042870 -0.998400 -0.037390 6.000000
0.186670 -0.115550 -0.029720 0.988000 0.083560 -0.129800 6.000000
-0.280970 0.112230 -0.050350 -0.335600 0.939300 -0.071840 6.000000
-0.143900 0.098820 0.211510 -0.078280 0.809200 0.582400 6.000000
-0.219470 0.066770 0.213500 -0.532200 0.479700 0.697600 6.000000
0.179990 -0.057240 -0.041420 -0.987300 -0.088020 0.131900 6.000000
0.191140 -0.152730 0.180540 0.000000 -1.000000 0.000000 7.000000
-0.171820 0.114780 -0.166990 -0.104200 0.961300 -0.254900 6.000000
0.284670 -0.145750 0.046500 -0.026580 0.999600 -0.006657 7.000000
-0.154890 0.120790 0.157910 -0.105000 0.927800 0.358100 6.000000
-0.335040 0.071310 0.022710 0.838400 -0.531900 -0.119300 6.000000
-0.241760 0.092240 -0.167620 0.381900 -0.818500 0.429200 6.000000
0.051270 0.083500 0.184310 -0.495700 -0.580400 -0.646100 6.000000
0.172020 -0.001210 -0.051190 -0.934200 -0.334800 0.122900 6.000000
0.248750 -0.145750 0.002150 -0.006646 0.999900 0.013280 7.000000
0.094100 -0.074110 -0.205670 -0.631400 -0.037240 0.774500 6.000000
-0.260670 0.121460 -0.004810 0.318000 -0.947800 0.022270 6.000000
-0.121750 -0.055680 0.277320 -0.130100 0.087040 0.987700 6.000000
-0.289940 -0.044040 -0.196540 0.731300 -0.111400 0.672900 6.000000
0.044770 0.113950 -0.125790 0.275300 0.938800 -0.206800 6.000000
-0.333390 0.045090 0.088240 -0.862200 0.357400 0.359100 6.000000
0.221420 -0.145750 -0.126520 0.079600 0.996800 -0.000000 7.000000
-0.286320 0.060930 -0.155430 0.720700 -0.430000 0.543800 6.000000
0.147430 -0.145750 0.204600 0.079160 0.996900 0.000000 7.000000
0.082630 -0.152730 0.243770 0.000000 -1.000000 0.000000 7.000000
0.067390 -0.145950 -0.231750 -0.601900 -0.032940 0.797900 7.000000
0.056020 0.118980 0.090350 0.275800 0.948100 0.158200 6.000000
-0.300580 -0.149220 -0.194900 0.770600 -0.056250 0.634900 6.000000
0.202280 -0.152730 0.117680 -0.039600 0.999200 0.000000 7.000000
-0.114330 -0.063420 -0.276280 0.130100 -0.087010 0.987700 6.000000
-0.270630 -0.067870 -0.213980 -0.607500 0.086250 -0.789600 6.000000
0.016570 0.124520 0.114100 0.114400 0.970800 0.210700 6.000000
-0.114740 0.139340 0.040430 -0.015070 0.996800 0.078820 6.000000
0.249740 -0.152730 -0.094150 -0.026500 0.999600 -0.006699 7.000000
-0.029560 0.006760 0.263060 -0.163500 -0.341900 -0.925400 6.000000
-0.374830 -0.137820 -0.036600 -0.991900 0.000030 -0.127100 6.000000
0.138650 0.048940 0.100060 0.855700 0.380100 0.351300 6.000000
0.033340 -0.113030 -0.251330 -0.380900 -0.087370 0.920500 6.000000
-0.176830 -0.076680 -0.266440 0.382900 -0.087550 0.919600 6.000000
0.236580 -0.152730 -0.150120 0.000000 -1.000000 0.000000 7.000000
-0.377830 -0.106200 -0.001360 -0.995800 0.086600 -0.029800 6.000000
-0.063680 0.040420 -0.252810 -0.127400 -0.304100 0.944100 6.000000
0.182210 -0.126310 -0.069850 0.989900 0.003188 -0.141600 6.000000
-0.160720 -0.114320 0.277360 -0.131400 0.088320 0.987400 6.000000
0.093570 0.113550 0.021430 -0.334900 -0.941200 -0.044300 6.000000
0.061820 -0.020750 0.227260 -0.606300 -0.087270 -0.790400 6.000000
-0.228030 0.012830 0.233530 0.475500 -0.366900 -0.799500 6.000000
0.164280 -0.001910 -0.082900 0.851300 0.397300 -0.342700 6.000000
-0.159170 0.113410 -0.176370 -0.149400 0.941300 -0.302800 6.000000
-0.036180 -0.092930 -0.273910 -0.132300 -0.087670 0.987300 6.000000
0.145500 -0.003220 0.132150 -0.892600 -0.238600 -0.382500 6.000000
-0.252770 -0.005450 0.222750 0.592100 -0.200500 -0.780500 6.000000
0.129860 0.072120 0.090650 0.739400 0.591000 0.322500 6.000000
0.202050 -0.152730 0.162010 0.000000 -1.000000 0.000000 7.000000
0.128380 0.023860 0.141480 -0.747600 -0.334500 -0.573700 6.000000
-0.030820 0.136700 -0.063460 0.091440 0.995400 -0.030250 6.000000
0.241230 -0.152730 -0.136970 0.000000 -1.000000 0.000000 7.000000
0.162770 -0.122440 -0.118090 0.922600 0.038330 -0.383900 6.000000
0.233580 -0.145750 -0.162060 0.019710 0.999600 0.020060 7.000000
-0.333390 0.045090 0.088240 -0.862200 0.357400 0.359100 6.000000
0.211530 -0.145750 0.145030 0.066650 0.997800 0.006458 7.000000
0.202280 -0.152730 0.117680 -0.039600 0.999200 0.000000 7.000000
0.075470 0.075330 0.172470 -0.626400 -0.548300 -0.554100 6.000000
-0.032500 -0.137350 0.278940 -0.130500 0.000039 -0.991400 6.000000
-0.265890 -0.099690 -0.221120 0.606200 -0.086160 0.790600 6.000000
0.260130 -0.152730 0.087940 0.000000 -1.000000 0.000000 7.000000
0.301730 -0.152730 -0.120610 0.086060 0.996200 -0.013110 7.000000
-0.090900 0.148550 -0.012920 -0.031180 0.808900 -0.587100 6.000000
-0.340180 0.032670 0.083360 -0.870600 0.334700 0.360700 6.000000
-0.105700 0.064530 0.248020 -0.107700 0.538200 0.835900 6.000000
-0.355320 0.019660 -0.032080 -0.934800 0.333400 -0.122600 6.000000
-0.248510 -0.087920 -0.233160 0.617100 -0.083290 0.782500 6.000000
0.278910 -0.145750 0.095430 0.000000 1.000000 0.000000 7.000000
-0.302000 0.042340 0.149790 -0.747700 0.334100 0.573900 6.000000
-0.353080 -0.137190 -0.113680 -0.923900 0.000000 -0.382700 6.000000
0.029160 -0.116580 -0.253400 0.381000 0.085930 -0.920600 6.000000
-0.053900 0.133120 0.115000 0.090240 0.980400 0.174900 6.000000
0.055520 0.126070 -0.014020 -0.224400 -0.974000 0.029910 6.000000
-0.167530 0.065070 -0.234210 -0.340800 0.489400 -0.802700 6.000000
0.198260 -0.145750 0.245320 0.000000 1.000000 0.000000 7.000000
-0.296430 -0.053480 -0.190070 -0.790600 0.086120 -0.606300 6.000000
-0.262890 0.068750 0.178540 -0.509800 0.547400 0.663700 6.000000
0.282400 -0.152730 -0.085490 0.000000 -1.000000 0.000000 7.000000
-0.212040 0.133350 -0.018150 0.225000 -0.973900 0.029860 6.000000
0.187590 -0.120910 0.029030 -0.989300 -0.066530 -0.130000 6.000000
-0.085510 -0.004960 -0.271920 -0.025600 -0.379800 0.924700 6.000000
0.143000 -0.152730 -0.182060 0.000000 -1.000000 0.000000 7.000000
0.313810 -0.152730 -0.173560 0.000000 -1.000000 0.000000 7.000000
-0.344690 -0.095360 0.129900 0.920600 -0.087420 -0.380700 6.000000
0.105700 -0.145750 0.224520 0.000000 -1.000000 0.000000 7.000000
-0.148100 -0.102290 0.277960 0.127100 -0.085220 -0.988200 6.000000
0.069800 -0.145750 -0.254330 -0.016430 0.997600 -0.067170 7.000000
0.173930 -0.145750 0.206290 0.000000 -1.000000 0.000000 7.000000
0.171640 -0.145750 0.249900 0.000000 1.000000 0.000000 7.000000
0.046210 0.037330 0.217670 0.573600 0.334400 0.747800 6.000000
0.179140 -0.019820 0.025540 -0.987700 -0.087040 -0.130000 6.000000
0.166860 -0.013500 -0.083350 -0.918800 -0.126600 0.373900 6.000000
-0.298730 -0.034070 -0.184290 -0.791000 0.087490 -0.605600 6.000000
0.119840 0.099090 0.019400 0.581900 0.809600 0.077060 6.000000
-0.321950 -0.114980 0.168330 0.791100 -0.086320 -0.605500 6.000000
-0.113150 0.140170 0.023940 0.030150 -0.998400 -0.047610 6.000000
-0.215180 -0.067680 0.252400 0.382700 -0.087530 -0.919700 6.000000
0.368680 -0.152730 -0.089620 0.951400 -0.110200 -0.287600 7.000000
0.089540 0.091410 -0.129020 0.440900 0.854300 -0.275400 6.000000
-0.082080 0.137120 0.083180 0.060570 0.996900 0.049980 6.000000
-0.373480 -0.066330 -0.007750 0.994100 -0.003295 0.108800 6.000000
-0.075600 0.008570 0.268480 -0.123100 -0.335000 -0.934100 6.000000
-0.018830 0.112670 -0.174390 0.165700 0.927900 -0.334000 6.000000
0.278910 -0.145750 0.095430 0.000000 1.000000 0.000000 7.000000
0.167070 -0.037930 -0.088420 -0.920100 -0.086690 0.381900 6.000000
0.233970 -0.152730 0.196780 0.000000 -1.000000 0.000000 7.000000
-0.356730 -0.044500 0.089220 -0.920300 0.086600 0.381500 6.000000
0.028130 0.132180 0.025760 -0.218400 -0.974400 -0.052500 6.000000
-0.290380 0.041930 -0.162470 0.747300 -0.341000 0.570300 6.000000
0.341310 -0.152730 0.029070 0.000000 -1.000000 0.000000 7.000000
0.210750 -0.152730 -0.080110 0.000000 -1.000000 0.000000 7.000000
0.184450 -0.148270 0.055520 -0.991600 -0.008081 -0.129200 7.000000
-0.247510 0.123390 -0.046940 -0.305300 0.945000 -0.117300 6.000000
0.344880 -0.152730 -0.143100 0.210500 -0.970500 -0.117400 7.000000
-0.076930 0.139980 -0.026820 0.036070 0.996000 -0.081560 6.000000
-0.054550 0.128490 0.136560 0.083610 0.973400 0.213500 6.000000
-0.290360 -0.006030 -0.190430 -0.701100 0.241500 -0.670900 6.000000
0.311020 -0.152730 0.157070 0.000000 -1.000000 0.000000 7.000000
0.121210 0.076810 -0.100810 0.737600 0.585500 -0.336300 6.000000
-0.017460 0.059230 0.238700 0.351100 0.318000 0.880700 6.000000
0.202830 -0.145750 -0.047690 0.033110 0.999100 -0.026450 7.000000
-0.301060 -0.022730 0.182320 0.789900 -0.086430 -0.607100 6.000000
-0.251850 -0.118340 0.236650 -0.634800 0.051940 0.770900 6.000000
-0.156990 0.091590 0.218670 0.181700 -0.815100 -0.550100 6.000000
0.074640 -0.145750 -0.235560 0.445800 0.722400 -0.528500 7.000000
0.146470 -0.099800 -0.146810 -0.807200 -0.084120 0.584300 6.000000
0.057620 -0.058270 -0.231920 -0.606900 -0.086620 0.790000 6.000000
0.339350 -0.145750 0.146770 -0.006741 0.999900 0.013370 7.000000
-0.349250 0.040180 0.025140 0.936000 -0.327600 -0.128800 6.000000
-0.153180 0.126960 0.135560 -0.088710 0.977100 0.193600 6.000000
-0.083970 -0.046290 0.278800 -0.036800 -0.086390 -0.995600 6.000000
-0.213990 -0.019830 -0.245670 0.381100 -0.087530 0.920400 6.000000
-0.045510 0.046220 0.251040 -0.122800 -0.361100 -0.924400 6.000000
0.035430 -0.085240 0.250540 -0.380300 -0.087310 -0.920700 6.000000
0.130960 0.091820 -0.008970 0.591300 0.802200 -0.083340 6.000000
0.250450 -0.145750 0.117500 0.000000 1.000000 0.000000 7.000000
0.006860 0.098030 -0.190570 0.255200 0.812900 -0.523600 6.000000
0.119800 -0.047340 0.176750 -0.790400 -0.087110 -0.606400 6.000000
0.128110 -0.152210 -0.262100 0.003334 -0.732600 -0.680700 7.000000
0.084740 -0.013780 0.208920 0.592000 0.191300 0.782900 6.000000
0.311620 -0.145750 -0.073330 0.000000 -1.000000 0.000000 7.000000
-0.043070 0.041010 0.252590 0.135800 0.303000 0.943300 6.000000
-0.033390 -0.101350 -0.274290 0.129000 0.086100 -0.987900 6.000000
0.344660 -0.152730 0.051000 0.000000 -1.000000 0.000000 7.000000
-0.091290 0.135940 0.105110 0.080230 0.996300 0.030220 6.000000
0.290700 -0.145750 0.087250 0.000000 0.999800 -0.019880 7.000000
0.201420 -0.145750 -0.188120 0.000000 1.000000 0.000000 7.000000
0.113390 0.046310 0.147940 -0.740900 -0.357800 -0.568400 6.000000
0.353990 -0.145750 0.097740 0.061540 0.998000 -0.017260 7.000000
0.033340 -0.113030 -0.251330 -0.380900 -0.087370 0.920500 6.000000
-0.033200 0.047870 0.248790 -0.188900 -0.345900 -0.919100 6.000000
-0.240070 -0.148130 0.246410 0.522400 -0.040220 -0.851800 6.000000
0.148750 0.033960 0.089840 0.881500 0.310900 0.355500 6.000000
-0.182950 -0.002090 -0.255230 -0.361500 0.254100 -0.897100 6.000000
-0.048210 0.137480 -0.059630 0.035490 0.998400 -0.044940 6.000000
-0.204580 0.115650 0.147050 0.203500 -0.942600 -0.264800 6.000000
-0.240270 0.116970 -0.102450 0.260600 -0.944200 0.201400 6.000000
0.310250 -0.145750 0.113760 -0.000040 1.000000 0.000079 7.000000
0.338730 -0.145750 -0.162060 0.837600 -0.086230 -0.539500 7.000000
0.181180 -0.016980 -0.005440 -0.985800 -0.094770 0.138800 6.000000
0.097090 0.106050 -0.072440 -0.540600 -0.811600 0.221700 6.000000
-0.049220 -0.037180 -0.270720 -0.168600 -0.046370 0.984600 6.000000
0.093290 -0.034230 0.204610 0.634500 0.014340 0.772800 6.000000
-0.331370 0.053910 -0.081270 0.861300 -0.338700 0.378600 6.000000
0.226510 -0.152730 -0.142700 0.000000 -1.000000 0.000000 7.000000
-0.256600 0.018480 0.209120 -0.565600 0.266800 0.780400 6.000000
-0.347330 0.014740 -0.080010 0.889000 -0.293600 0.351300 6.000000
0.224760 -0.152730 0.124900 0.000000 -1.000000 0.000000 7.000000
-0.374830 -0.137820 -0.036600 -0.991900 0.000030 -0.127100 6.000000
-0.235170 -0.092100 -0.243730 0.464900 -0.134200 0.875100 6.000000
-0.040410 -0.116630 -0.276560 -0.123200 -0.102600 0.987100 6.000000
-0.331370 0.053910 -0.081270 0.861300 -0.338700 0.378600 6.000000
0.190660 -0.145750 -0.234870 0.000000 1.000000 0.000000 7.000000
-0.105700 0.064530 0.248020 -0.107700 0.538200 0.835900 6.000000
0.182390 -0.152730 0.192900 0.000000 -1.000000 0.000000 7.000000
0.128770 0.052780 0.119800 -0.855000 -0.378700 -0.354400 6.000000
0.094380 0.102070 0.096010 -0.542000 -0.809600 -0.225300 6.000000
0.169830 -0.045730 0.086250 -0.920500 -0.086590 -0.381000 6.000000
0.067190 0.026980 -0.203500 0.521000 0.417200 -0.744600 6.000000
0.101280 -0.008430 0.195290 -0.744000 -0.313300 -0.590200 6.000000
0.187390 -0.136080 0.033170 0.991500 -0.003325 0.130400 6.000000
0.318090 -0.152730 -0.045300 0.000000 -1.000000 0.000000 7.000000
-0.327790 -0.138720 0.162140 0.793500 -0.000019 -0.608500 6.000000
-0.142180 -0.032680 -0.269910 0.162600 -0.086570 0.982900 6.000000
-0.312660 -0.057580 -0.169500 0.791000 -0.087900 0.605400 6.000000
0.322350 -0.152730 -0.008200 0.000000 -1.000000 0.000000 7.000000
0.339890 -0.152730 0.013880 0.000000 -1.000000 0.000000 7.000000
-0.362050 -0.096580 -0.085560 0.919900 -0.088450 0.382000 6.000000
0.099760 -0.056420 0.202090 0.551200 0.077210 0.830800 6.000000
0.186740 -0.079650 0.007840 0.989500 0.086470 0.116100 6.000000
-0.289180 -0.147660 0.208720 0.610100 -0.004405 -0.792300 6.000000
0.139480 -0.124320 0.162130 0.792900 0.015580 0.609100 6.000000
-0.040030 -0.070750 0.275160 -0.131800 -0.087730 -0.987400 6.000000
-0.318390 0.067410 0.098010 -0.773300 0.543800 0.326100 6.000000
0.002790 0.136180 0.024420 0.049150 0.998500 0.024830 6.000000
0.377860 -0.145750 0.040290 0.988400 -0.141600 0.054740 7.000000
-0.367790 -0.064750 0.052580 -0.987700 0.087960 0.129200 6.000000
-0.217320 0.106790 0.163800 -0.399900 0.760000 0.512300 6.000000
-0.318980 -0.074660 0.166410 -0.790200 0.086910 0.606600 6.000000
0.190060 -0.136190 0.012920 -0.991500 0.000025 -0.130100 6.000000
-0.326140 0.001860 -0.139210 -0.755200 0.331200 -0.565600 6.000000
0.102000 -0.000900 0.190290 -0.744000 -0.313300 -0.590200 6.000000
0.057220 0.123790 -0.048740 -0.227800 -0.969400 0.091520 6.000000
0.103340 0.103220 0.070270 -0.542600 -0.809400 -0.224800 6.000000
-0.317770 0.019590 -0.139780 0.749900 -0.279800 0.599500 6.000000
0.333770 -0.152730 -0.108900 0.000000 -1.000000 0.000000 7.000000
-0.257170 0.122270 0.015480 0.282900 -0.958500 -0.035540 6.000000
0.104320 0.071980 0.138950 0.625500 0.607000 0.490300 6.000000
-0.310530 -0.117680 -0.180900 -0.790700 0.082600 -0.606600 6.000000
-0.080500 0.058930 0.250440 0.067870 0.590600 0.804100 6.000000
-0.006540 -0.058550 0.265400 0.380000 -0.008739 0.924900 6.000000
0.000810 0.052420 0.234150 -0.356800 -0.353700 -0.864600 6.000000
-0.316830 -0.118210 -0.172770 0.793500 -0.075850 0.603800 6.000000
-0.314430 -0.038850 0.167210 -0.790700 0.087020 0.606000 6.000000
0.073790 0.116780 0.065500 0.300800 0.940700 0.157200 6.000000
-0.077600 0.112870 -0.188720 -0.043670 -0.941200 0.335100 6.000000
-0.254040 0.008910 -0.212660 0.592300 -0.333200 0.733600 6.000000
-0.149010 0.138700 -0.004150 -0.083820 0.996400 -0.012440 6.000000
0.082630 -0.152730 0.243770 0.000000 -1.000000 0.000000 7.000000
-0.092590 0.139500 0.042620 0.002375 0.997100 0.076560 6.000000
0.273530 -0.152730 0.182510 0.039800 0.999000 0.019850 7.000000
0.324850 -0.145750 0.096480 0.000000 1.000000 0.000000 7.000000
0.162250 -0.101990 -0.114680 -0.920600 -0.086880 0.380700 6.000000
-0.328870 0.061020 0.082370 -0.809600 0.468000 0.354300 6.000000
0.233970 -0.152730 0.196780 0.000000 -1.000000 0.000000 7.000000
0.053040 0.126080 0.035030 -0.220100 -0.973500 -0.062360 6.000000
-0.216420 0.131520 -0.035810 0.211700 -0.973600 0.085350 6.000000
-0.276080 -0.012100 -0.203660 0.606600 -0.090950 0.789800 6.000000
0.257880 -0.145750 0.062230 0.000000 1.000000 0.000000 7.000000
-0.012850 0.118400 -0.154420 -0.122800 -0.948700 0.291500 6.000000
-0.308870 0.093750 -0.059930 -0.565200 0.807800 -0.167400 6.000000
0.310040 -0.152730 -0.069460 0.000000 -1.000000 0.000000 7.000000
0.095010 -0.152730 0.267550 -0.000446 -0.209100 0.977900 7.000000
-0.363280 -0.124360 0.091630 -0.923300 0.038190 0.382300 6.000000
0.113320 -0.152260 -0.193610 -0.484000 -0.799300 0.356200 7.000000
-0.354450 0.019710 0.041270 0.938700 -0.326200 -0.111600 6.000000
-0.305670 0.087090 -0.091600 -0.660600 0.696600 -0.279900 6.000000
-0.229930 0.082160 -0.190080 -0.486100 0.595600 -0.639500 6.000000
0.148560 -0.152730 0.225930 0.000000 -1.000000 0.000000 7.000000
0.128110 -0.152210 -0.262100 0.003334 -0.732600 -0.680700 7.000000
-0.137700 -0.103230 -0.276710 0.095890 -0.087570 0.991500 6.000000
-0.372420 -0.140170 0.057650 -0.991400 -0.000383 0.131200 6.000000
-0.012970 0.112420 -0.172720 0.165700 0.927900 -0.334000 6.000000
0.170480 -0.132990 -0.100020 0.934700 0.070420 -0.348400 6.000000
0.149270 -0.145750 0.247250 0.000000 -1.000000 0.000000 7.000000
0.156140 -0.059720 -0.119770 0.906700 0.150700 -0.393900 6.000000
0.067740 0.060870 -0.186970 -0.544900 -0.425100 0.722800 6.000000
0.289890 -0.152730 -0.158940 0.000000 -1.000000 0.000000 7.000000
-0.309740 -0.044340 -0.171410 -0.789700 0.087350 -0.607200 6.000000
-0.256220 -0.132230 -0.231310 -0.608800 0.003615 -0.793300 6.000000
0.315760 -0.145750 0.178930 -0.039880 0.999200 0.000000 7.000000
0.298100 -0.152730 0.087450 0.000000 -1.000000 0.000000 7.000000
0.336000 -0.145750 -0.148320 0.000000 -1.000000 0.000000 7.000000
-0.265900 -0.077580 -0.218680 0.653000 -0.050150 0.755700 6.000000
-0.214430 -0.087350 -0.251870 -0.380700 0.086350 -0.920700 6.000000
-0.373610 -0.116080 0.042720 0.987400 -0.088530 -0.131400 6.000000
0.131100 -0.144160 0.173130 -0.793700 0.000000 -0.608300 7.000000
-0.310150 -0.020590 -0.167470 -0.789700 0.087360 -0.607300 6.000000
-0.136820 0.136160 0.091340 -0.042360 0.993900 0.101500 6.000000
-0.218840 0.113220 -0.141970 -0.199700 0.938900 -0.280300 6.000000
0.302600 -0.152730 -0.144630 0.000000 -1.000000 0.000000 7.000000
-0.368550 -0.060370 -0.041180 -0.988400 0.084590 -0.125900 6.000000
-0.064930 -0.024780 0.274390 0.129700 0.086720 0.987800 6.000000
-0.306910 -0.144240 -0.186640 -0.793200 -0.000009 -0.608900 6.000000
0.146260 -0.129310 0.153380 0.808000 -0.076690 0.584200 6.000000
0.162720 -0.152730 0.192700 0.000000 -1.000000 0.000000 7.000000
-0.037220 -0.046880 -0.269990 0.130000 0.087000 -0.987700 6.000000
0.373270 -0.152730 -0.014270 0.003812 -1.000000 0.000000 7.000000
